-20.1474 -9.93713 -2.09465 255 0 0
-21.9188 -10.3281 -2.5298 255 0 0
-18.2096 -10.6538 -1.98622 255 0 0
-20.4707 -10.0465 -2.14496 255 0 0
-21.1877 -9.9195 -2.57726 255 0 0
-16.6822 -11.2913 -1.75647 255 0 0
-19.1424 -10.1792 -2.21092 255 0 0
-16.6834 -11.3473 -2.26061 255 0 0
-18.1952 -11.0673 -2.45948 255 0 0
-20.0496 -10.0171 -2.95502 255 0 0
-20.0571 -9.61304 -3.16168 255 0 0
-16.2949 -11.0201 -2.55282 255 0 0
-19.2398 -10.7972 -3.72055 255 0 0
-17.7499 -11.1447 -3.28324 255 0 0
-18.0031 -10.8674 -3.58689 255 0 0
-18.7676 -10.809 -3.86659 255 0 0
-16.4833 -11.0881 -3.2813 255 0 0
-16.8596 -11.0594 -3.70623 255 0 0
-17.2952 -9.43921 0.557966 255 0 0
-16.7089 -10.5252 0.115478 255 0 0
-16.8328 -10.9047 0.125464 255 0 0
-18.2638 -10.3297 -0.102086 255 0 0
-16.1608 -11.5588 -0.00482059 255 0 0
-17.3848 -10.3322 -0.331841 255 0 0
-19.061 -10.2446 -0.696588 255 0 0
-16.2882 -11.3653 -0.16682 255 0 0
-16.9994 -10.7988 -0.351653 255 0 0
-17.0763 -10.6003 -0.461013 255 0 0
-14.4393 -11.4629 -0.0245173 255 0 0
-17.4504 -10.6658 -0.54334 255 0 0
-20.8588 -10.5212 -1.2714 255 0 0
-15.4713 -11.5435 -0.634672 255 0 0
-15.9414 -11.455 -0.629867 255 0 0
-20.2472 -10.0101 -2.01514 255 0 0
-18.53 -10.578 -1.5839 255 0 0
-16.0364 -11.4462 -1.01894 255 0 0
-18.7432 -10.4507 -2.03157 255 0 0
-16.9145 -11.2305 -2.08277 255 0 0
-19.3862 -10.2873 -2.60489 255 0 0
-19.1867 -10.3642 -2.56785 255 0 0
-18.1362 -11.0805 -2.34578 255 0 0
-15.8429 -11.2409 -2.04404 255 0 0
-16.5399 -11.3705 -2.54761 255 0 0
-18.6431 -10.7869 -3.72986 255 0 0
-16.5727 -11.1872 -3.26903 255 0 0
-17.6011 -8.9864 0.497539 255 0 0
-17.1223 -10.5377 0.329074 255 0 0
-17.1603 -10.4917 0.240504 255 0 0
-17.2158 -10.3289 0.183756 255 0 0
-17.2337 -10.5345 -0.39596 255 0 0
-19.3778 -10.3458 -0.998463 255 0 0
-19.6347 -10.6638 -1.18346 255 0 0
-19.4778 -10.2647 -1.19629 255 0 0
-18.7741 -10.4223 -1.26295 255 0 0
-19.0335 -10.4568 -1.25347 255 0 0
-20.2493 -10.1851 -1.89555 255 0 0
-20.2143 -9.92687 -2.05163 255 0 0
-18.491 -10.7796 -1.79874 255 0 0
-16.0932 -11.3047 -1.4802 255 0 0
-19.5313 -10.1664 -2.42725 255 0 0
-15.7516 -11.3124 -1.65216 255 0 0
-17.4338 -11.258 -2.29609 255 0 0
-18.9043 -10.4516 -3.30133 255 0 0
-18.5874 -10.7358 -4.01985 255 0 0
-18.5179 -10.2604 0.0287359 255 0 0
-18.0912 -10.2672 -0.133767 255 0 0
-19.5147 -10.5829 -1.66843 255 0 0
-20.6346 -9.99852 -2.06601 255 0 0
-22.7905 -10.0737 -2.88132 255 0 0
-18.1915 -10.2775 0.04742 255 0 0
-19.1326 -10.3717 -0.479605 255 0 0
-17.3113 -10.8107 -0.92818 255 0 0
-19.6462 -10.4423 -1.52319 255 0 0
-20.0276 -10.2991 -1.5709 255 0 0
-19.8846 -10.119 -1.98375 255 0 0
-18.8706 -10.5091 -0.682944 255 0 0
-19.6644 -10.3812 -0.977595 255 0 0
-19.3415 -10.4452 -0.913439 255 0 0
-19.3253 -10.4399 -1.6644 255 0 0
-19.6067 -10.0434 -2.19611 255 0 0
-18.4794 -10.4942 -2.59255 255 0 0
-19.1645 -10.8588 -4.0266 255 0 0
-18.2785 -10.8474 -4.13228 255 0 0
-18.6766 -10.8009 -3.95833 255 0 0
-18.4959 -10.9101 -3.87127 255 0 0
-18.5917 -10.7494 -3.7901 255 0 0
-18.6563 -10.8556 -3.7551 255 0 0
-18.7992 -10.8164 -3.84414 255 0 0
-18.623 -10.7902 -3.7103 255 0 0
-17.6222 -10.9624 -3.83084 255 0 0
-17.8011 -10.8624 -3.69378 255 0 0
-16.9787 -10.9666 -3.70256 255 0 0
-16.7808 -10.9638 -3.79801 255 0 0
-18.0211 -10.7959 -3.80572 255 0 0
-17.8867 -10.6945 -3.65175 255 0 0
-21.9692 -10.3251 -3.19656 255 0 0
-21.9517 -10.3402 -3.18109 255 0 0
-17.6461 -11.0265 -3.51126 255 0 0
-18.5978 -10.6595 -3.34282 255 0 0
-18.8048 -10.8484 -3.37637 255 0 0
-22.3933 -10.3102 -3.18936 255 0 0
-18.7537 -11.006 -3.24013 255 0 0
-16.961 -11.1299 -3.48347 255 0 0
-17.8491 -10.9574 -3.42726 255 0 0
-18.2933 -10.9588 -3.39372 255 0 0
-17.7875 -10.9307 -3.25456 255 0 0
-18.2329 -10.882 -3.19317 255 0 0
-17.2939 -11.0961 -3.45522 255 0 0
-17.2416 -11.0937 -3.38167 255 0 0
-17.7658 -11.0528 -3.3698 255 0 0
-17.2049 -10.9933 -3.0704 255 0 0
-22.1155 -10.5311 -2.40406 255 0 0
-16.429 -11.1043 -3.16509 255 0 0
-19.292 -10.2589 -2.50843 255 0 0
-17.261 -11.0244 -2.76865 255 0 0
-16.7317 -11.2348 -3.13423 255 0 0
-17.1414 -11.1513 -3.23743 255 0 0
-18.3754 -10.9122 -2.68121 255 0 0
-17.5573 -11.0484 -2.95788 255 0 0
-18.3403 -10.8644 -2.70248 255 0 0
-16.7291 -11.1773 -2.89461 255 0 0
-15.9662 -11.3558 -2.71164 255 0 0
-17.5796 -10.9297 -2.64283 255 0 0
-17.4448 -11.2043 -2.43826 255 0 0
-16.7879 -11.3783 -2.39447 255 0 0
-20.8307 -10.3613 -1.50246 255 0 0
-17.6376 -11.0825 -2.2669 255 0 0
-17.8824 -11.1176 -2.06656 255 0 0
-20.8172 -10.2038 -1.20845 255 0 0
-16.3895 -11.2716 -2.06376 255 0 0
-16.4423 -11.3864 -2.25659 255 0 0
-16.3356 -11.3625 -2.37505 255 0 0
-17.2396 -11.1479 -2.02919 255 0 0
-19.1169 -10.4122 -1.32814 255 0 0
-17.289 -11.1238 -1.84272 255 0 0
-17.2319 -11.1382 -1.7896 255 0 0
-16.7767 -11.2006 -1.74171 255 0 0
-16.8708 -11.3327 -1.74274 255 0 0
-16.9674 -11.0256 -1.67052 255 0 0
-18.6569 -10.5604 -1.17411 255 0 0
-19.9778 -10.3575 -0.881279 255 0 0
-19.4565 -10.6746 -0.715854 255 0 0
-15.902 -11.5894 -1.79875 255 0 0
-18.0371 -10.6451 -1.01897 255 0 0
-18.1202 -10.67 -1.13795 255 0 0
-16.3875 -11.1491 -1.73254 255 0 0
-15.8717 -11.2572 -1.71429 255 0 0
-16.4719 -11.4015 -1.74659 255 0 0
-18.2054 -10.9372 -1.12022 255 0 0
-16.6168 -11.5791 -1.69716 255 0 0
-15.3433 -11.4861 -1.72207 255 0 0
-17.1665 -11.3087 -1.52152 255 0 0
-16.2629 -11.1804 -1.64773 255 0 0
-15.8262 -11.3395 -1.72101 255 0 0
-15.6139 -11.4361 -1.79733 255 0 0
-15.8365 -11.4172 -1.61289 255 0 0
-16.6561 -11.1445 -1.36932 255 0 0
-19.2124 -10.3984 -0.770296 255 0 0
-18.684 -10.621 -0.642112 255 0 0
-19.8636 -10.5917 -0.405616 255 0 0
-16.5406 -11.4611 -1.29424 255 0 0
-16.541 -11.243 -1.28551 255 0 0
-15.7293 -11.5396 -1.40176 255 0 0
-16.6831 -11.2169 -1.08361 255 0 0
-17.0279 -11.3732 -0.892832 255 0 0
-16.9915 -11.162 -0.996247 255 0 0
-15.8618 -11.5527 -1.09461 255 0 0
-15.6376 -11.4619 -1.10859 255 0 0
-16.7135 -11.3243 -0.771169 255 0 0
-16.5578 -11.3325 -0.65048 255 0 0
-18.1557 -10.4275 -0.214794 255 0 0
-17.8492 -10.5989 -0.297729 255 0 0
-17.8044 -10.7335 -0.204647 255 0 0
-16.4685 -11.4794 -0.802709 255 0 0
-16.1147 -11.4645 -0.92775 255 0 0
-15.2362 -11.3445 -0.937034 255 0 0
-17.2655 -10.3998 -0.444756 255 0 0
-19.0752 -10.3821 0.277169 255 0 0
-17.908 -10.5111 -0.168416 255 0 0
-19.2525 -10.2102 0.284326 255 0 0
-17.2146 -10.5663 -0.400686 255 0 0
-19.5854 -10.2643 0.587626 255 0 0
-19.2172 -10.3042 0.404768 255 0 0
-16.7742 -10.5632 -0.440727 255 0 0
-17.3049 -10.706 -0.364419 255 0 0
-16.4302 -11.424 -0.601183 255 0 0
-16.5624 -11.2705 -0.460201 255 0 0
-15.9468 -11.4819 -0.785718 255 0 0
-15.8777 -11.4416 -0.453977 255 0 0
-16.0848 -11.4112 -0.536545 255 0 0
-16.2578 -11.4255 -0.274598 255 0 0
-15.9133 -11.7349 -0.610761 255 0 0
-15.9005 -11.4944 -0.657591 255 0 0
-15.1658 -11.4418 -0.578605 255 0 0
-15.7539 -11.5435 -0.300413 255 0 0
-17.0497 -10.5699 0.395086 255 0 0
-18.3301 -8.69429 0.7444 255 0 0
-16.9897 -10.6739 0.0716078 255 0 0
-15.8398 -11.588 -0.24109 255 0 0
-15.7123 -11.3166 0.328392 255 0 0
-17.3052 -10.8631 -4.34251 255 0 0
-17.6242 -10.9764 -4.07367 255 0 0
-17.0161 -11.0875 -4.06066 255 0 0
-18.4147 -10.7528 -3.83033 255 0 0
-18.5547 -10.7691 -3.92029 255 0 0
-17.5513 -11.1043 -4.1113 255 0 0
-16.3971 -11.0557 -3.80995 255 0 0
-18.5707 -10.8548 -3.76113 255 0 0
-18.0251 -11.1033 -3.78945 255 0 0
-16.9833 -10.9397 -4.01429 255 0 0
-18.4925 -10.8708 -3.65087 255 0 0
-20.4025 -9.87932 -3.10795 255 0 0
-17.8255 -10.9481 -3.30712 255 0 0
-18.652 -10.9364 -3.23746 255 0 0
-16.5532 -11.1608 -3.39908 255 0 0
-18.4179 -10.8814 -3.16566 255 0 0
-22.6302 -10.2945 -2.60345 255 0 0
-21.6766 -10.432 -2.63489 255 0 0
-21.816 -10.4571 -2.58479 255 0 0
-16.5621 -11.1199 -3.29496 255 0 0
-16.3957 -11.1048 -3.2909 255 0 0
-17.0664 -11.049 -2.87888 255 0 0
-17.194 -10.981 -3.02252 255 0 0
-21.5538 -10.5936 -2.25594 255 0 0
-17.7491 -10.9798 -2.98481 255 0 0
-17.2582 -11.143 -2.93443 255 0 0
-21.0881 -10.0132 -2.08441 255 0 0
-18.0287 -10.987 -2.52624 255 0 0
-17.4639 -11.1206 -2.70542 255 0 0
-17.2114 -11.254 -2.73125 255 0 0
-16.8542 -11.0448 -2.73165 255 0 0
-19.8876 -10.3939 -1.81989 255 0 0
-19.8648 -10.2893 -2.00996 255 0 0
-16.0079 -11.1485 -2.61747 255 0 0
-17.9459 -11.0664 -2.37417 255 0 0
-15.8429 -11.5214 -2.76088 255 0 0
-15.9253 -11.2985 -2.58512 255 0 0
-16.6511 -11.222 -2.54371 255 0 0
-17.2839 -11.1878 -2.23131 255 0 0
-17.1927 -11.2048 -2.24858 255 0 0
-17.2268 -11.3126 -2.25256 255 0 0
-16.8556 -11.2138 -2.19796 255 0 0
-17.3047 -11.0863 -2.26703 255 0 0
-19.8276 -10.3997 -1.36798 255 0 0
-17.9486 -10.7856 -1.66801 255 0 0
-16.2193 -11.3899 -2.42395 255 0 0
-15.6329 -11.202 -2.37956 255 0 0
-16.8348 -11.2251 -2.00926 255 0 0
-18.9118 -10.3218 -1.46715 255 0 0
-18.4796 -10.717 -1.69487 255 0 0
-16.212 -11.3345 -2.37459 255 0 0
-16.5428 -11.3193 -1.81684 255 0 0
-19.8145 -10.4757 -1.11553 255 0 0
-15.7296 -11.3306 -2.0463 255 0 0
-16.2021 -11.4035 -2.03016 255 0 0
-16.3505 -11.2989 -2.05191 255 0 0
-18.4914 -10.735 -1.30738 255 0 0
-18.5129 -10.7855 -1.31103 255 0 0
-18.6184 -10.5417 -0.923502 255 0 0
-16.8192 -11.1036 -1.54255 255 0 0
-20.5912 -10.6038 -0.722121 255 0 0
-18.7206 -10.7109 -1.19722 255 0 0
-18.4533 -10.716 -1.11594 255 0 0
-18.083 -10.5936 -1.14264 255 0 0
-15.9586 -11.3745 -1.88508 255 0 0
-16.4629 -11.1861 -1.49178 255 0 0
-16.1479 -11.4128 -1.56729 255 0 0
-16.6357 -11.4619 -1.75898 255 0 0
-19.2843 -10.2732 -0.859906 255 0 0
-19.062 -10.2974 -0.757766 255 0 0
-16.7991 -11.2952 -1.2278 255 0 0
-18.1924 -10.989 -0.821804 255 0 0
-17.9743 -10.9324 -1.02584 255 0 0
-16.6205 -11.4804 -1.12207 255 0 0
-17.3677 -10.7503 -0.990949 255 0 0
-16.5174 -11.4511 -1.31691 255 0 0
-17.7557 -10.9232 -0.839064 255 0 0
-16.3964 -11.2634 -1.42585 255 0 0
-19.9369 -10.4913 -0.237001 255 0 0
-15.3588 -11.5044 -1.38804 255 0 0
-15.4147 -11.5719 -1.61777 255 0 0
-16.8948 -11.2774 -1.1362 255 0 0
-16.6083 -11.438 -0.741412 255 0 0
-16.6111 -11.2013 -0.784913 255 0 0
-16.0997 -11.4575 -0.935212 255 0 0
-18.5053 -10.3232 -0.0226211 255 0 0
-17.7325 -10.4956 -0.293552 255 0 0
-15.9413 -11.5946 -0.979056 255 0 0
-17.9958 -10.3518 -0.233293 255 0 0
-17.2003 -10.606 -0.282708 255 0 0
-17.705 -10.5686 -0.146102 255 0 0
-17.9281 -10.6861 0.030709 255 0 0
-17.5548 -10.5139 -0.301369 255 0 0
-16.8699 -10.4755 -0.143471 255 0 0
-18.0758 -10.3151 0.0065291 255 0 0
-18.1774 -10.5049 0.0600099 255 0 0
-17.0758 -10.3913 -0.251971 255 0 0
-15.3507 -11.5899 -0.854134 255 0 0
-16.6247 -11.5337 -0.64318 255 0 0
-16.5924 -11.3959 -0.569843 255 0 0
-16.1809 -11.6086 -0.604383 255 0 0
-16.0608 -11.4578 -0.58749 255 0 0
-15.095 -11.6408 -0.904004 255 0 0
-15.8032 -11.4661 -0.559636 255 0 0
-16.4263 -11.2244 -0.23503 255 0 0
-16.3516 -11.4235 -0.195167 255 0 0
-15.5977 -11.5423 -0.372208 255 0 0
-16.4259 -11.4904 -0.194876 255 0 0
-16.6222 -10.5648 0.182343 255 0 0
-16.8957 -10.4053 0.0557909 255 0 0
-16.5991 -11.4112 -0.0744977 255 0 0
-15.5625 -11.6315 -0.188352 255 0 0
-16.9998 -10.4853 0.241692 255 0 0
-16.9519 -10.4474 0.248727 255 0 0
-15.6493 -11.6735 -0.179984 255 0 0
-15.5716 -11.5079 -0.00895508 255 0 0
-15.2616 -11.6528 -0.415202 255 0 0
-17.3393 -9.04345 0.576139 255 0 0
-17.9398 -8.94676 0.922492 255 0 0
-18.0875 -8.71653 0.973567 255 0 0
-16.1049 -11.4362 0.279005 255 0 0
-18.203 -8.50137 0.901682 255 0 0
-17.6891 -8.93569 0.9026 255 0 0
-15.6169 -11.4667 -0.00307798 255 0 0
-17.6246 -8.68019 1.00424 255 0 0
-17.0165 -11.0929 -4.07716 255 0 0
-17.5558 -10.8622 -3.80846 255 0 0
-16.1809 -11.0628 -3.95811 255 0 0
-18.4957 -10.6364 -3.59888 255 0 0
-16.797 -11.0386 -3.75974 255 0 0
-22.1506 -10.407 -3.07759 255 0 0
-18.3225 -10.9034 -3.42328 255 0 0
-18.6184 -10.7976 -3.40493 255 0 0
-17.6018 -10.9328 -3.42099 255 0 0
-17.2154 -10.9785 -3.51376 255 0 0
-17.8448 -10.9104 -3.21426 255 0 0
-17.9698 -10.9474 -3.14633 255 0 0
-18.2897 -11.0107 -3.13458 255 0 0
-17.7998 -11.0645 -3.21754 255 0 0
-16.823 -11.1649 -3.10226 255 0 0
-17.7139 -10.9566 -2.70873 255 0 0
-19.0121 -10.1391 -2.33532 255 0 0
-18.1574 -11.0086 -2.54288 255 0 0
-17.1643 -11.125 -3.01136 255 0 0
-19.3875 -10.2774 -1.83417 255 0 0
-17.4207 -11.2942 -2.325 255 0 0
-17.7862 -11.055 -2.39634 255 0 0
-17.219 -11.0506 -2.20714 255 0 0
-16.2349 -11.2577 -2.23257 255 0 0
-16.2625 -11.3603 -1.96543 255 0 0
-16.3594 -11.3623 -1.83108 255 0 0
-16.012 -11.3016 -1.8373 255 0 0
-20.5674 -10.5177 -0.72358 255 0 0
-17.571 -10.6936 -1.4326 255 0 0
-15.5546 -11.2987 -1.95382 255 0 0
-20.4993 -10.4958 -0.5401 255 0 0
-18.7893 -10.6577 -0.908534 255 0 0
-17.0892 -11.2213 -1.62261 255 0 0
-20.3522 -10.4506 -0.223922 255 0 0
-16.121 -11.3206 -1.55253 255 0 0
-16.7399 -11.33 -1.39779 255 0 0
-15.8895 -11.368 -1.53709 255 0 0
-17.9883 -10.7809 -0.775854 255 0 0
-16.5931 -11.5696 -1.26358 255 0 0
-16.7289 -11.2211 -1.24977 255 0 0
-17.085 -11.319 -1.22468 255 0 0
-16.5576 -11.2319 -1.22613 255 0 0
-15.2434 -11.4379 -1.65069 255 0 0
-16.962 -11.1677 -1.17924 255 0 0
-16.4959 -11.4008 -1.00252 255 0 0
-16.6399 -11.268 -1.10147 255 0 0
-15.5392 -11.3893 -1.35018 255 0 0
-15.8784 -11.4497 -1.25701 255 0 0
-16.2146 -11.351 -0.974435 255 0 0
-16.7222 -11.3599 -0.749857 255 0 0
-18.2534 -10.4499 -0.166693 255 0 0
-15.9578 -11.4787 -0.963856 255 0 0
-17.4789 -10.3721 -0.426198 255 0 0
-16.7935 -10.7257 -0.469187 255 0 0
-16.8682 -11.2967 -0.641197 255 0 0
-17.4164 -10.5962 -0.339803 255 0 0
-16.382 -11.291 -0.560831 255 0 0
-16.4248 -11.2643 -0.697141 255 0 0
-16.1104 -11.4647 -0.623605 255 0 0
-16.2197 -11.43 -0.538518 255 0 0
-15.56 -11.6076 -0.93499 255 0 0
-16.0949 -11.553 -0.643537 255 0 0
-16.0759 -11.6619 -0.354258 255 0 0
-15.7383 -11.4643 -0.551514 255 0 0
-16.0838 -11.3743 -0.295831 255 0 0
-15.9456 -11.347 -0.435271 255 0 0
-16.0347 -11.3975 -0.356912 255 0 0
-15.5607 -11.5178 -0.539115 255 0 0
-15.7612 -11.6745 -0.298915 255 0 0
-16.1897 -11.5436 -0.00178749 255 0 0
-15.7709 -11.4643 -0.226142 255 0 0
-16.0841 -11.584 -0.189798 255 0 0
-15.3051 -11.65 -0.515681 255 0 0
-15.7812 -11.388 -0.0699837 255 0 0
-15.272 -11.5767 -0.414208 255 0 0
-15.6894 -11.5552 -0.267977 255 0 0
-16.1113 -11.381 0.0497578 255 0 0
-15.8398 -11.5083 -0.087526 255 0 0
-15.2761 -11.6148 -0.371429 255 0 0
-17.3387 -9.12697 0.647665 255 0 0
-17.2659 -9.25771 0.766904 255 0 0
-17.3683 -9.04946 0.661532 255 0 0
-17.5102 -8.76754 1.06731 255 0 0
-18.4967 -10.9532 -3.99238 255 0 0
-17.2324 -10.7827 -3.93112 255 0 0
-17.0845 -11.1181 -3.88848 255 0 0
-16.8782 -10.9238 -3.73352 255 0 0
-16.9666 -11.083 -3.77535 255 0 0
-18.0254 -10.8678 -3.58819 255 0 0
-21.9271 -10.2577 -3.12125 255 0 0
-16.3604 -11.3118 -3.69408 255 0 0
-17.3288 -10.9716 -3.33813 255 0 0
-17.8902 -10.9701 -3.32254 255 0 0
-16.3244 -11.0954 -3.10229 255 0 0
-16.9539 -11.113 -3.052 255 0 0
-20.1814 -9.93187 -2.26646 255 0 0
-21.4245 -10.246 -1.94337 255 0 0
-17.9276 -10.9422 -2.37289 255 0 0
-16.6244 -11.1127 -2.6214 255 0 0
-19.1341 -10.5076 -1.34221 255 0 0
-16.0306 -11.2949 -2.10216 255 0 0
-18.4136 -10.712 -1.53084 255 0 0
-16.6922 -11.4807 -1.88993 255 0 0
-16.0172 -11.4908 -1.63563 255 0 0
-16.843 -11.3352 -1.11767 255 0 0
-16.96 -11.4255 -1.23068 255 0 0
-19.512 -10.3531 -0.422068 255 0 0
-16.7347 -11.3163 -1.23836 255 0 0
-15.8096 -11.5996 -1.40585 255 0 0
-16.9384 -10.5764 -0.894537 255 0 0
-16.7572 -11.4778 -0.906398 255 0 0
-16.7783 -11.3788 -0.82806 255 0 0
-17.7635 -10.3461 -0.186283 255 0 0
-15.5298 -11.4638 -0.849888 255 0 0
-15.7663 -11.5458 -0.388015 255 0 0
-15.1887 -11.629 -0.630457 255 0 0
-17.4195 -10.4857 0.202998 255 0 0
-17.2369 -10.5163 0.353313 255 0 0
-16.0464 -11.5271 0.108297 255 0 0
-15.2588 -11.5423 -0.271284 255 0 0
-14.9547 -11.3923 -0.25335 255 0 0
-17.5253 -10.9527 -4.34622 255 0 0
-18.0505 -10.9259 -4.23014 255 0 0
-18.1592 -10.7404 -4.01236 255 0 0
-17.1635 -10.9783 -4.07753 255 0 0
-21.85 -10.4949 -3.12234 255 0 0
-17.968 -11.0135 -3.25133 255 0 0
-17.9968 -10.9285 -3.08925 255 0 0
-16.0902 -11.3099 -2.70021 255 0 0
-16.8185 -11.2319 -1.06948 255 0 0
-16.9861 -10.7842 -0.946943 255 0 0
-17.1875 -10.8913 -0.855694 255 0 0
-16.8671 -11.5191 -0.909767 255 0 0
-16.3225 -11.5316 -0.263853 255 0 0
-15.4912 -11.4927 -0.554286 255 0 0
-15.5293 -11.4711 -0.413271 255 0 0
-17.223 -10.4333 0.316226 255 0 0
-15.5931 -11.313 -0.459968 255 0 0
-16.2135 -11.6349 -0.12209 255 0 0
-16.2426 -11.6762 0.11025 255 0 0
-15.2188 -11.575 -0.339368 255 0 0
-15.654 -11.5119 0.0505279 255 0 0
-15.4577 -11.4239 -0.0200114 255 0 0
-15.0756 -11.5406 0.127565 255 0 0
-16.8853 -11.0989 -4.10797 255 0 0
-16.998 -11.1355 -3.74628 255 0 0
-16.9402 -11.3097 -2.33606 255 0 0
-18.1781 -10.8709 -0.946124 255 0 0
-17.9835 -10.8322 -0.924437 255 0 0
-17.3392 -10.4379 -0.416505 255 0 0
-17.5347 -10.4461 -0.450708 255 0 0
-17.2078 -9.19407 0.443558 255 0 0
-17.6097 -9.00234 0.892034 255 0 0
-14.7307 -11.4721 0.0512863 255 0 0
-22.0742 -10.5058 -2.51161 255 0 0
-19.7871 -10.6284 -0.705611 255 0 0
-17.4316 -10.4007 -0.403184 255 0 0
-17.9198 -10.5361 -0.174046 255 0 0
-15.4677 -11.4782 0.219524 255 0 0
-17.4093 -10.9641 -3.22101 255 0 0
-16.222 -11.4844 -1.51908 255 0 0
-19.559 -10.1673 -2.39034 255 0 0
-19.3044 -10.1869 -1.07031 255 0 0
-19.2638 -10.1503 -2.59866 255 0 0
-19.3792 -10.33 -1.76893 255 0 0
-16.3586 -11.3569 -0.877969 255 0 0
-20.0606 -10.366 -1.7056 255 0 0
-18.6289 -10.5475 -1.8858 255 0 0
-19.3882 -10.6342 -1.14122 255 0 0
-18.0186 -10.83 -1.11053 255 0 0
-17.4712 -10.5515 -0.140874 255 0 0
-17.4187 -8.94598 0.216474 255 0 0
-17.4874 -9.02755 0.928294 255 0 0
-21.8511 -10.2528 -3.24692 255 0 0
-22.043 -10.3158 -2.36181 255 0 0
-21.9822 -10.3821 -2.33786 255 0 0
-19.3674 -10.6607 -4.0516 255 0 0
-18.5594 -10.9301 -4.01259 255 0 0
-18.9011 -10.7998 -3.92906 255 0 0
-18.7133 -10.8001 -3.6787 255 0 0
-18.7954 -10.8256 -3.9743 255 0 0
-20.7473 -10.2444 -1.35125 255 0 0
-20.947 -10.2585 -1.28687 255 0 0
-20.7726 -10.1646 -1.33719 255 0 0
-18.6432 -10.8283 -3.90331 255 0 0
-19.1 -10.0033 -2.44436 255 0 0
-18.3947 -10.8183 -3.76491 255 0 0
-17.8651 -10.8728 -4.50341 255 0 0
-18.5665 -10.7437 -3.46203 255 0 0
-17.9927 -10.7547 -4.0504 255 0 0
-18.0725 -10.8832 -3.64181 255 0 0
-17.7225 -10.8503 -3.88761 255 0 0
-17.7283 -10.8848 -3.9972 255 0 0
-17.2529 -10.9501 -4.11276 255 0 0
-17.7781 -10.9233 -3.75443 255 0 0
-20.6782 -10.4919 -0.890841 255 0 0
-17.6732 -10.9754 -3.90047 255 0 0
-17.633 -10.9261 -3.70589 255 0 0
-18.2923 -10.8363 -3.14088 255 0 0
-19.1852 -10.4731 -1.78358 255 0 0
-16.9384 -10.9425 -4.22027 255 0 0
-17.8051 -10.8641 -3.49119 255 0 0
-16.5998 -10.9976 -4.44164 255 0 0
-16.6964 -10.9514 -4.19497 255 0 0
-17.2384 -10.8991 -3.63678 255 0 0
-17.1341 -11.1058 -3.47049 255 0 0
-17.0623 -10.9828 -3.61669 255 0 0
-19.6919 -10.3585 -0.245733 255 0 0
-16.7853 -10.8753 -3.67311 255 0 0
-19.6115 -10.4048 -0.240742 255 0 0
-19.3321 -10.2977 -0.755407 255 0 0
-16.9104 -11.1588 -3.52243 255 0 0
-19.5762 -10.5008 -0.330877 255 0 0
-19.0739 -10.5784 -1.22474 255 0 0
-18.9935 -10.5715 -1.03507 255 0 0
-18.7949 -10.4446 -1.15629 255 0 0
-18.778 -10.2875 -1.30993 255 0 0
-19.3393 -10.3015 -0.372279 255 0 0
-16.9353 -11.1325 -3.45305 255 0 0
-18.9297 -10.5363 -0.889403 255 0 0
-19.0016 -10.5755 -0.794276 255 0 0
-18.2773 -10.6207 -1.48242 255 0 0
-19.0717 -10.3066 -0.544927 255 0 0
-18.532 -10.7992 -1.35736 255 0 0
-18.5826 -10.5621 -1.08165 255 0 0
-17.0947 -11.0214 -2.96516 255 0 0
-18.9023 -10.7197 -0.822979 255 0 0
-18.8237 -10.3194 -0.425663 255 0 0
-17.3673 -11.1689 -2.4878 255 0 0
-18.3026 -10.8661 -0.979273 255 0 0
-19.3776 -10.3821 0.427895 255 0 0
-18.5437 -10.5271 -0.779918 255 0 0
-17.5815 -10.9738 -2.37391 255 0 0
-18.5572 -8.90588 0.869283 255 0 0
-18.7059 -10.2679 0.0845853 255 0 0
-18.3028 -8.6357 0.808665 255 0 0
-16.9766 -11.233 -2.3504 255 0 0
-18.4206 -10.5305 -0.0655847 255 0 0
-18.1336 -10.3688 -0.0449703 255 0 0
-17.3012 -10.5366 -0.982954 255 0 0
-17.4892 -10.6429 -0.40137 255 0 0
-17.5181 -10.6465 -0.295502 255 0 0
-16.8132 -11.2625 -1.51273 255 0 0
-17.3769 -10.5896 -0.23719 255 0 0
-17.1746 -10.6224 -0.497836 255 0 0
-16.8335 -11.1443 -1.61761 255 0 0
-17.533 -8.87176 1.39334 255 0 0
-16.4518 -11.3301 -1.6554 255 0 0
-15.9385 -11.473 -2.34232 255 0 0
-16.5443 -11.4306 -1.28544 255 0 0
-16.6563 -11.3495 -1.02124 255 0 0
-17.0229 -10.4259 0.258129 255 0 0
-15.3412 -11.1249 -2.15076 255 0 0
-16.3144 -11.3308 -0.979651 255 0 0
-16.5649 -11.2749 -0.524231 255 0 0
-16.1341 -11.4557 -0.391064 255 0 0
-16.2273 -11.6698 -0.322567 255 0 0
-21.9035 -10.3991 -3.13019 255 0 0
-21.5138 -10.6231 -1.42759 255 0 0
-18.785 -10.8502 -3.62574 255 0 0
-18.298 -10.9655 -3.86508 255 0 0
-18.7261 -10.7962 -3.43859 255 0 0
-18.4587 -10.8693 -3.24897 255 0 0
-19.6756 -10.3522 -1.60791 255 0 0
-17.6739 -10.8907 -3.92329 255 0 0
-20.5567 -10.4631 -0.846024 255 0 0
-17.579 -10.9887 -3.83118 255 0 0
-16.8939 -11.0197 -4.56813 255 0 0
-17.5165 -10.974 -4.17164 255 0 0
-16.8393 -11.0745 -4.48279 255 0 0
-17.9799 -10.9086 -3.35606 255 0 0
-18.7236 -10.5962 -2.42625 255 0 0
-17.0815 -10.94 -3.99928 255 0 0
-18.1172 -11.0599 -3.13627 255 0 0
-20.481 -10.454 -0.363668 255 0 0
-16.8388 -11.0307 -4.25546 255 0 0
-18.1562 -11.0742 -2.94735 255 0 0
-17.951 -10.9582 -2.72492 255 0 0
-19.1029 -10.5152 -1.39945 255 0 0
-19.9563 -10.5991 -0.502642 255 0 0
-17.0999 -10.9002 -3.52967 255 0 0
-19.5229 -10.5243 -0.920981 255 0 0
-18.5806 -10.7124 -2.08433 255 0 0
-18.851 -10.3878 -1.51386 255 0 0
-17.9867 -10.9416 -2.92737 255 0 0
-18.6833 -10.6201 -1.44685 255 0 0
-18.8276 -10.6036 -1.12337 255 0 0
-18.9498 -10.5698 -0.934526 255 0 0
-16.4483 -11.1141 -4.09787 255 0 0
-18.7809 -10.5755 -1.11693 255 0 0
-19.6632 -10.4944 -0.527253 255 0 0
-17.0613 -10.8664 -3.39508 255 0 0
-16.2951 -11.053 -3.93109 255 0 0
-19.1686 -10.3497 -0.685794 255 0 0
-18.403 -10.8214 -1.30786 255 0 0
-18.565 -10.7231 -1.41936 255 0 0
-18.5217 -10.9135 -1.24314 255 0 0
-17.1068 -11.2589 -2.53052 255 0 0
-18.4055 -10.9262 -1.29933 255 0 0
-18.3268 -10.7052 -1.2652 255 0 0
-18.4155 -10.7882 -0.845567 255 0 0
-17.3239 -10.4512 -1.77051 255 0 0
-16.8088 -11.1057 -2.66059 255 0 0
-18.6498 -10.3263 0.273639 255 0 0
-18.1222 -10.8266 -0.833383 255 0 0
-18.7531 -10.4081 0.394558 255 0 0
-18.2376 -10.9127 -0.866728 255 0 0
-17.1941 -11.1185 -2.11047 255 0 0
-18.3318 -10.4642 -0.1765 255 0 0
-17.7369 -10.7488 -0.861959 255 0 0
-18.3328 -10.5375 -0.126564 255 0 0
-18.1011 -10.3785 -0.00144461 255 0 0
-16.504 -11.2317 -2.46262 255 0 0
-17.8097 -10.4093 -0.334416 255 0 0
-17.961 -10.5376 -0.180888 255 0 0
-17.4273 -8.98183 0.418484 255 0 0
-16.5483 -11.2486 -1.74145 255 0 0
-17.4104 -9.09362 0.657266 255 0 0
-17.1373 -11.416 -1.15541 255 0 0
-17.2883 -10.4476 -0.413579 255 0 0
-17.5713 -8.79708 1.15874 255 0 0
-17.4221 -8.8977 0.980067 255 0 0
-16.3655 -11.4791 -1.93712 255 0 0
-16.4002 -11.3439 -1.37737 255 0 0
-16.5878 -11.4231 -1.26832 255 0 0
-16.7822 -11.3121 -1.39286 255 0 0
-16.5577 -11.1338 -1.13937 255 0 0
-15.5541 -11.5381 -1.78374 255 0 0
-16.1775 -11.5026 -0.603191 255 0 0
-17.0663 -10.6432 0.666451 255 0 0
-16.415 -11.2569 -0.428901 255 0 0
-16.218 -11.3846 -0.31467 255 0 0
-15.526 -11.3971 -1.55972 255 0 0
-15.1237 -11.5978 -1.50976 255 0 0
-16.2112 -11.5206 -0.000314463 255 0 0
-15.1729 -11.5606 -1.01842 255 0 0
-15.301 -11.533 -0.84306 255 0 0
-15.8964 -11.4947 -0.509652 255 0 0
-15.5956 -11.6125 -0.572252 255 0 0
-19.4859 -9.97188 -3.1782 255 0 0
-20.3607 -10.1062 -1.8685 255 0 0
-20.4583 -9.94396 -1.85697 255 0 0
-20.77 -10.2937 -1.20313 255 0 0
-19.2272 -10.1076 -2.53274 255 0 0
-18.5963 -10.8977 -3.53344 255 0 0
-19.5565 -10.5004 -2.24565 255 0 0
-18.5248 -10.7426 -3.31079 255 0 0
-20.1867 -10.1977 -1.0681 255 0 0
-20.1371 -10.4878 -1.04761 255 0 0
-17.6874 -11.0386 -3.62169 255 0 0
-20.6721 -10.7057 -0.628217 255 0 0
-20.5588 -10.4968 -0.41137 255 0 0
-20.6841 -10.583 -0.474722 255 0 0
-18.1666 -10.7848 -2.91566 255 0 0
-17.1265 -11.0403 -3.96185 255 0 0
-20.4188 -10.7443 -0.57837 255 0 0
-19.2845 -10.5233 -1.09885 255 0 0
-16.3117 -11.1134 -4.50952 255 0 0
-17.4181 -11.1635 -3.28011 255 0 0
-17.0392 -11.1356 -3.71441 255 0 0
-19.2089 -10.3057 -0.595175 255 0 0
-19.2793 -10.4038 -0.360761 255 0 0
-18.4479 -10.6805 -1.24995 255 0 0
-18.3536 -10.9894 -0.890143 255 0 0
-16.0862 -11.2299 -3.50976 255 0 0
-16.4018 -11.1136 -3.06137 255 0 0
-18.8083 -10.2149 0.247592 255 0 0
-17.9955 -10.479 -0.163522 255 0 0
-16.8011 -11.3735 -2.02874 255 0 0
-18.1082 -10.4754 -0.0496442 255 0 0
-17.3444 -10.7137 -1.36425 255 0 0
-17.6209 -10.7624 -0.355566 255 0 0
-17.3468 -10.5999 -0.168164 255 0 0
-17.0829 -11.1566 -1.14978 255 0 0
-16.197 -11.2264 -1.74489 255 0 0
-17.0292 -9.58649 0.809591 255 0 0
-16.6792 -11.361 -0.662924 255 0 0
-16.7984 -10.5457 -0.0425686 255 0 0
-16.7447 -11.4704 -0.903974 255 0 0
-16.9601 -10.4971 0.00145246 255 0 0
-16.7534 -10.7051 0.0736119 255 0 0
-16.6456 -10.6664 0.242334 255 0 0
-15.8994 -11.3361 -1.02108 255 0 0
-16.3774 -11.5726 -0.595298 255 0 0
-16.4047 -11.355 0.161792 255 0 0
-15.8645 -11.5631 -0.10997 255 0 0
-15.394 -11.5032 -0.159685 255 0 0
-14.81 -11.568 -0.189621 255 0 0
-22.1557 -10.274 -2.36234 255 0 0
-21.7701 -10.4399 -2.17504 255 0 0
-20.9337 -10.0098 -1.8132 255 0 0
-18.9358 -10.0865 -3.39618 255 0 0
-20.2543 -10.0287 -2.36839 255 0 0
-18.6051 -11.0647 -3.9697 255 0 0
-19.3094 -10.0876 -2.61734 255 0 0
-18.3443 -10.9542 -3.98706 255 0 0
-19.0999 -10.1416 -2.34848 255 0 0
-17.3061 -10.8932 -4.02259 255 0 0
-17.2251 -11.0071 -3.90083 255 0 0
-19.8416 -10.4982 -0.265168 255 0 0
-16.973 -11.1642 -3.46984 255 0 0
-18.896 -10.4054 -1.12478 255 0 0
-18.9667 -10.4004 -1.09411 255 0 0
-18.7537 -10.4062 -0.821953 255 0 0
-18.8931 -10.6666 -0.29264 255 0 0
-18.1796 -10.6732 -1.23775 255 0 0
-17.3935 -10.4769 -1.75199 255 0 0
-18.6879 -10.6547 -0.526666 255 0 0
-16.9972 -11.0819 -2.64809 255 0 0
-18.5301 -10.2771 -0.0408183 255 0 0
-17.3278 -11.1028 -2.01096 255 0 0
-17.0711 -10.8725 -1.95269 255 0 0
-16.5451 -11.0809 -2.29187 255 0 0
-17.7203 -10.384 -0.285419 255 0 0
-17.0676 -11.4257 -1.77772 255 0 0
-17.0918 -10.3875 -0.469047 255 0 0
-16.5139 -11.4865 -0.525234 255 0 0
-17.0684 -10.5284 0.671354 255 0 0
-16.3209 -11.4009 -0.673353 255 0 0
-16.1651 -11.4782 -0.637082 255 0 0
-15.9915 -11.4596 -0.755602 255 0 0
-16.0432 -11.4352 -0.150485 255 0 0
-15.821 -11.4687 -0.663359 255 0 0
-16.2052 -11.5933 0.0881797 255 0 0
-15.1415 -11.6601 -0.0445037 255 0 0
-14.6865 -11.3655 -0.253678 255 0 0
-20.7001 -9.95504 -2.8131 255 0 0
-20.6475 -9.88433 -2.34094 255 0 0
-19.1627 -10.0257 -3.2034 255 0 0
-19.0269 -10.2284 -2.38433 255 0 0
-19.2137 -10.4342 -2.70336 255 0 0
-19.7097 -10.4084 -1.55544 255 0 0
-18.5317 -10.9551 -3.11231 255 0 0
-18.969 -10.4285 -0.770924 255 0 0
-18.686 -10.577 -1.04865 255 0 0
-17.6871 -11.1845 -2.00577 255 0 0
-18.7398 -10.5478 -0.58995 255 0 0
-18.1326 -10.836 -1.34895 255 0 0
-16.9807 -11.2256 -1.98089 255 0 0
-17.8014 -10.3268 -0.671279 255 0 0
-17.2477 -9.2488 0.302126 255 0 0
-15.7873 -11.5027 -2.11961 255 0 0
-17.0667 -10.5642 0.226079 255 0 0
-17.0429 -10.5433 0.2618 255 0 0
-16.1713 -11.3557 -0.31166 255 0 0
-16.3481 -11.4792 -0.523934 255 0 0
-16.3258 -11.5413 -0.0966621 255 0 0
-15.8412 -11.4809 -0.577268 255 0 0
-19.3873 -9.93143 -3.43411 255 0 0
-19.2453 -9.95527 -2.96422 255 0 0
-20.5733 -10.3277 -1.26271 255 0 0
-18.8652 -10.4438 -2.51447 255 0 0
-19.3685 -10.4287 -0.715091 255 0 0
-19.3664 -10.6724 -1.02048 255 0 0
-19.0285 -10.2818 -0.345784 255 0 0
-18.0408 -10.7576 -1.0769 255 0 0
-18.1604 -10.8185 -0.895574 255 0 0
-18.3267 -10.5839 -0.279256 255 0 0
-16.7987 -11.2368 -1.86035 255 0 0
-17.2264 -9.3123 0.309851 255 0 0
-16.5681 -11.4602 -0.141519 255 0 0
-15.9984 -11.3987 -0.0941428 255 0 0
-20.3303 -10.1841 -2.067 255 0 0
-19.6881 -10.1773 -2.16667 255 0 0
-19.5808 -10.4201 -1.56441 255 0 0
-18.7362 -10.2818 -1.31292 255 0 0
-17.6262 -10.5062 -0.306587 255 0 0
-17.4321 -10.5115 -0.336257 255 0 0
-17.6745 -10.5055 -0.231634 255 0 0
-17.3258 -10.5769 -0.409343 255 0 0
-16.5864 -11.4423 -1.03899 255 0 0
-16.6893 -11.2667 -0.694718 255 0 0
-17.4124 -8.96188 0.673824 255 0 0
-20.3708 -9.99022 -2.57919 255 0 0
-21.0816 -9.96739 -1.21601 255 0 0
-19.7117 -10.3985 -2.26515 255 0 0
-19.657 -10.303 -1.38759 255 0 0
-19.162 -10.4239 -2.47362 255 0 0
-17.2095 -10.5296 0.188304 255 0 0
-14.6076 -11.7784 -0.146174 255 0 0
-18.6175 -10.5176 -2.85542 255 0 0
-21.0473 -9.83449 -1.89562 255 0 0
-21.0717 -10.1281 -1.62953 255 0 0
-20.6502 -10.2095 -2.37488 255 0 0
-20.4781 -9.88332 -2.12277 255 0 0
-21.0054 -10.3404 -0.831163 255 0 0
-20.3004 -10.0451 -2.22035 255 0 0
-20.1406 -10.3716 -1.14028 255 0 0
-19.9788 -10.4046 -0.81659 255 0 0
-18.2636 -8.69347 0.798899 255 0 0
-18.1944 -8.64498 0.725247 255 0 0
-19.8292 -10.1768 -1.52213 255 0 0
-20.0355 -10.4864 -0.299714 255 0 0
-19.2226 -10.0338 -2.40873 255 0 0
-19.293 -10.2471 -0.572496 255 0 0
-19.2842 -10.6215 -0.715328 255 0 0
-19.216 -10.5117 -1.17469 255 0 0
-17.8147 -8.76431 0.756907 255 0 0
-19.1963 -10.4668 0.0480857 255 0 0
-18.9829 -10.4282 -1.31069 255 0 0
-18.8804 -10.3471 -0.568342 255 0 0
-18.97 -10.369 -0.745231 255 0 0
-18.8014 -10.3185 -0.568476 255 0 0
-18.8255 -10.5272 -0.924964 255 0 0
-18.7531 -10.8065 -3.76587 255 0 0
-18.6154 -10.4685 -0.568504 255 0 0
-17.4797 -9.04094 0.733467 255 0 0
-18.7021 -10.4276 -0.560857 255 0 0
-18.6254 -10.8691 -0.792428 255 0 0
-18.5367 -10.6444 -3.91971 255 0 0
-18.3159 -10.3576 -0.0832378 255 0 0
-18.62 -10.7772 -3.60272 255 0 0
-18.5244 -10.6327 -3.93847 255 0 0
-18.7577 -10.9887 -3.34995 255 0 0
-18.5148 -10.9099 -3.58808 255 0 0
-18.4072 -10.7245 -1.04625 255 0 0
-18.5037 -10.7357 -0.935422 255 0 0
-18.5746 -10.9403 -1.21556 255 0 0
-18.2806 -10.4948 -0.0572199 255 0 0
-18.015 -10.5442 -0.301018 255 0 0
-18.4651 -10.9001 -3.33866 255 0 0
-17.9074 -10.4669 -0.246711 255 0 0
-17.899 -10.2225 -0.0495793 255 0 0
-18.308 -10.8597 -2.8755 255 0 0
-18.0427 -10.9486 -2.8467 255 0 0
-17.2444 -10.663 -0.475377 255 0 0
-17.2493 -11.0209 -2.95835 255 0 0
-17.1436 -11.1164 -2.9895 255 0 0
-17.1162 -11.3266 -2.23921 255 0 0
-16.5417 -11.3781 -1.99385 255 0 0
-16.6564 -11.1418 -2.37163 255 0 0
-16.7453 -11.5195 -0.641151 255 0 0
-16.6014 -11.3736 -1.3167 255 0 0
-16.3629 -11.3483 -3.2299 255 0 0
-16.2891 -11.246 -1.99366 255 0 0
-16.2367 -11.3106 -1.81268 255 0 0
-15.5952 -10.2202 0.39066 255 0 0
-20.866 -10.2234 -1.78813 255 0 0
-20.4879 -9.77919 -2.27081 255 0 0
-20.4323 -10.6725 -0.460576 255 0 0
-20.3628 -10.6272 -0.440078 255 0 0
-19.846 -10.4552 -0.408929 255 0 0
-19.9378 -10.4547 -1.72473 255 0 0
-19.4012 -10.2963 0.475411 255 0 0
-19.2079 -10.077 -2.62154 255 0 0
-19.2112 -10.2627 -2.14308 255 0 0
-19.3955 -10.2487 -0.857854 255 0 0
-19.3089 -10.202 -0.906519 255 0 0
-19.2275 -10.3416 -0.702989 255 0 0
-18.8958 -10.7206 -1.31634 255 0 0
-18.8776 -10.7127 -4.05363 255 0 0
-18.9561 -10.5121 -1.19861 255 0 0
-18.5485 -10.4466 -0.179517 255 0 0
-18.6766 -10.5176 -1.13127 255 0 0
-18.4895 -10.7581 -1.00631 255 0 0
-18.2329 -10.675 -1.58078 255 0 0
-18.54 -10.7641 -1.29367 255 0 0
-18.1976 -10.796 -1.12987 255 0 0
-18.1324 -11.0386 -2.6613 255 0 0
-18.3315 -10.6965 -0.731336 255 0 0
-18.1931 -10.8563 -2.66405 255 0 0
-18.0317 -11.0236 -3.01722 255 0 0
-17.7886 -10.4922 -0.278279 255 0 0
-17.7786 -10.4125 -0.222671 255 0 0
-17.7109 -10.3964 -0.304572 255 0 0
-18.1185 -11.1055 -2.63464 255 0 0
-17.0729 -9.47791 0.848215 255 0 0
-17.3452 -10.6249 -0.817205 255 0 0
-17.3936 -10.8074 -1.00625 255 0 0
-16.9912 -10.5642 0.293518 255 0 0
-16.9409 -11.1971 -3.59009 255 0 0
-16.9173 -11.1486 -1.8153 255 0 0
-16.9425 -11.2063 -1.5133 255 0 0
-16.7053 -11.1603 -2.02474 255 0 0
-16.6561 -11.1772 -1.82567 255 0 0
-16.5946 -11.262 -1.34328 255 0 0
-16.6121 -11.3066 -0.579868 255 0 0
-16.2921 -11.4679 -0.66423 255 0 0
-16.4007 -11.4809 -0.0153122 255 0 0
-16.162 -11.3232 -1.45439 255 0 0
-15.8752 -11.3212 -2.14345 255 0 0
-22.1798 -10.4165 -2.41961 255 0 0
-22.1344 -10.5342 -2.9486 255 0 0
-20.5243 -10.029 -2.15541 255 0 0
-20.5761 -10.1484 -2.14884 255 0 0
-20.1253 -10.4745 -0.53808 255 0 0
-19.952 -10.2466 -1.67994 255 0 0
-19.276 -10.1915 -3.61538 255 0 0
-19.3275 -10.0237 -2.3325 255 0 0
-19.1733 -10.3356 -2.78484 255 0 0
-19.2227 -10.4033 -1.21226 255 0 0
-19.3435 -10.7035 -3.8895 255 0 0
-18.7832 -10.4572 -0.899709 255 0 0
-18.6134 -10.239 0.133161 255 0 0
-18.7925 -10.7931 -3.62915 255 0 0
-18.8498 -10.7594 -3.74917 255 0 0
-18.7809 -10.7008 -3.26386 255 0 0
-18.5851 -10.9623 -3.94713 255 0 0
-18.1604 -10.9168 -0.818541 255 0 0
-18.1811 -10.8962 -1.0537 255 0 0
-17.8815 -10.8167 -3.92098 255 0 0
-16.9981 -11.5009 -1.66293 255 0 0
-15.9014 -11.5146 -2.08984 255 0 0
-15.7028 -11.615 -0.327113 255 0 0
-15.6433 -11.6565 -0.0670934 255 0 0
-15.3696 -11.4739 -0.424786 255 0 0
-15.1294 -11.4317 -0.741759 255 0 0
-20.814 -10.1626 -1.97707 255 0 0
-19.9236 -10.2903 -1.95497 255 0 0
-20.0259 -10.473 -0.821871 255 0 0
-19.9914 -10.5061 -0.446947 255 0 0
-19.9196 -10.551 -0.328497 255 0 0
-18.8602 -10.1582 -3.34175 255 0 0
-19.0375 -10.3963 -1.33533 255 0 0
-18.8036 -10.3884 -0.191143 255 0 0
-18.8205 -10.4064 -1.39446 255 0 0
-18.6577 -10.3964 0.248661 255 0 0
-18.6507 -10.4975 -0.50678 255 0 0
-18.7208 -10.8467 -3.98899 255 0 0
-18.1127 -10.928 -1.33919 255 0 0
-17.0509 -9.06077 0.838835 255 0 0
-17.7846 -10.275 -0.18046 255 0 0
-18.3139 -11.0762 -2.25678 255 0 0
-17.2582 -10.5324 0.471539 255 0 0
-17.1366 -11.0514 -3.20816 255 0 0
-17.1327 -11.2344 -1.67716 255 0 0
-16.6428 -11.3887 -2.00076 255 0 0
-16.7814 -11.523 -0.994346 255 0 0
-16.0611 -11.4779 -0.155058 255 0 0
-16.087 -11.5844 -0.261991 255 0 0
-15.7231 -11.5111 -0.716816 255 0 0
-19.5574 -10.4707 -0.216196 255 0 0
-19.5706 -10.4092 -1.58211 255 0 0
-17.6536 -9.06594 0.617046 255 0 0
-19.0095 -10.3055 0.223978 255 0 0
-18.6481 -10.8363 -3.91204 255 0 0
-18.7541 -10.8636 -3.55073 255 0 0
-18.4031 -10.8061 -0.571787 255 0 0
-18.0559 -10.8096 -1.0679 255 0 0
-17.2754 -10.4179 -0.229333 255 0 0
-17.2445 -10.6405 0.319314 255 0 0
-17.1255 -11.3015 -1.76025 255 0 0
-14.8629 -11.5223 -0.23298 255 0 0
-19.3822 -10.7217 -1.17597 255 0 0
-19.1406 -10.2685 -0.399188 255 0 0
-19.175 -10.3422 -0.526756 255 0 0
-18.1616 -10.2751 -0.0659388 255 0 0
-17.2086 -9.56112 0.660768 255 0 0
-17.2029 -11.2121 -1.28941 255 0 0
-16.8225 -11.0133 -1.70112 255 0 0
-16.2846 -11.298 -0.266153 255 0 0
-15.9914 -11.4197 -0.930664 255 0 0
-19.5863 -10.5174 -0.812876 255 0 0
-18.9814 -10.5025 -1.31029 255 0 0
-18.4238 -10.2872 -0.14647 255 0 0
-17.3634 -10.8302 -1.48233 255 0 0
-16.9916 -10.6751 -0.738202 255 0 0
-16.4655 -11.4673 -0.960113 255 0 0
-16.2606 -11.3311 -1.61224 255 0 0
-16.3368 -11.3547 -1.00704 255 0 0
-14.8289 -11.5659 0.0803089 255 0 0
-19.0654 -10.4977 -1.14709 255 0 0
-18.5685 -10.772 -1.47418 255 0 0
-18.2205 -10.7661 -1.18226 255 0 0
-19.2927 -10.2858 -1.76332 255 0 0
-19.2203 -10.5143 -0.722262 255 0 0
-20.2326 -10.0046 -1.6351 255 0 0
-19.3187 -10.3257 -0.750041 255 0 0
-18.4099 -10.505 -2.76248 255 0 0
-18.3151 -8.82513 0.993688 255 0 0
-17.4437 -9.02491 0.587817 255 0 0
-17.3641 -9.2039 0.60257 255 0 0
-19.9128 -10.5227 -0.352893 255 0 0
-19.1239 -10.0126 -0.6183 255 0 0
-19.4573 -10.4276 -1.0241 255 0 0
-20.2948 -10.0989 -2.14743 255 0 0
-18.4282 -10.3757 -0.0288983 255 0 0
-17.0546 -10.5047 0.654103 255 0 0
-17.7845 -10.4106 -0.421323 255 0 0
-19.478 -10.1577 -2.55111 255 0 0
-16.9264 -10.4536 0.388381 255 0 0
-17.0683 -10.7502 -0.643744 255 0 0
-16.6337 -10.5616 -0.662524 255 0 0
-17.8988 -10.8663 -2.02074 255 0 0
-16.4743 -11.3962 -0.601924 255 0 0
-16.6096 -11.2388 -1.0592 255 0 0
-16.3261 -11.4039 -0.611442 255 0 0
-16.4088 -11.325 -0.936459 255 0 0
-16.1509 -11.5192 -1.49828 255 0 0
-18.1085 -8.69528 1.06287 255 0 0
-17.7298 -8.79936 0.666014 255 0 0
-21.794 -10.5427 -2.04913 255 0 0
-19.7691 -10.5095 -0.343026 255 0 0
-19.6959 -10.3948 -1.21413 255 0 0
-20.3179 -9.89903 -2.04463 255 0 0
-20.391 -10.1366 -2.19302 255 0 0
-18.788 -10.3772 0.0410191 255 0 0
-18.7267 -10.7815 -0.370413 255 0 0
-19.2435 -10.0486 -2.32708 255 0 0
-19.2224 -10.133 -2.66663 255 0 0
-19.1487 -9.829 -2.5154 255 0 0
-16.704 -10.5674 0.73495 255 0 0
-18.3241 -10.8763 -1.71774 255 0 0
-17.1365 -10.4319 -0.612673 255 0 0
-19.1343 -10.844 -3.83025 255 0 0
-16.4599 -11.4977 -0.20304 255 0 0
-16.5145 -11.372 -0.540881 255 0 0
-18.327 -10.8884 -3.8323 255 0 0
-16.5418 -11.2143 -1.93875 255 0 0
-17.8724 -10.9178 -3.85676 255 0 0
-17.1369 -11.3263 -3.02263 255 0 0
-17.7418 -10.883 -3.98713 255 0 0
-15.7863 -11.5625 -0.637718 255 0 0
-16.2187 -11.2706 -1.75017 255 0 0
-17.5841 -11.0803 -4.08616 255 0 0
-17.4023 -11.0805 -4.04025 255 0 0
-17.3018 -11.0509 -4.06772 255 0 0
-15.7514 -11.4825 -1.98693 255 0 0
-16.4825 -11.094 -3.21802 255 0 0
-20.5196 -10.5409 -0.45445 255 0 0
-20.08 -10.389 -0.635561 255 0 0
-20.1603 -10.4052 -0.645577 255 0 0
-19.8853 -10.4209 -1.19328 255 0 0
-17.2402 -9.16597 0.478457 255 0 0
-20.4457 -9.91448 -2.13097 255 0 0
-19.0626 -10.3031 -0.633823 255 0 0
-18.5004 -10.4453 0.0820661 255 0 0
-18.9676 -10.3192 -0.709352 255 0 0
-18.8236 -10.4127 -0.982841 255 0 0
-17.2784 -10.3913 0.566393 255 0 0
-18.7761 -10.7861 -1.2397 255 0 0
-16.7279 -10.7435 0.361738 255 0 0
-19.3788 -10.2955 -3.65306 255 0 0
-19.3775 -10.6244 -3.75636 255 0 0
-17.167 -11.3937 -1.22121 255 0 0
-16.463 -11.4438 -0.0965205 255 0 0
-16.2497 -11.3372 0.234534 255 0 0
-18.0991 -10.8614 -3.08527 255 0 0
-16.2784 -11.3945 -0.572875 255 0 0
-17.0944 -11.1227 -1.66157 255 0 0
-16.8565 -11.3956 -1.38824 255 0 0
-15.7828 -11.3405 -0.0578718 255 0 0
-17.3088 -11.2399 -2.60733 255 0 0
-15.8937 -11.5506 -0.337835 255 0 0
-15.9222 -11.5306 -0.323004 255 0 0
-15.4414 -11.5467 -0.227471 255 0 0
-16.2675 -11.1138 -1.78339 255 0 0
-15.5116 -11.5488 -0.56422 255 0 0
-14.7953 -11.6565 0.256935 255 0 0
-15.2633 -11.774 -0.535375 255 0 0
-15.5011 -11.4727 -1.19671 255 0 0
-15.3723 -11.743 -0.759898 255 0 0
-16.9718 -10.9429 -4.32141 255 0 0
-17.6332 -8.78189 0.499471 255 0 0
-20.0619 -10.4569 -0.40779 255 0 0
-19.8875 -10.3664 -0.384032 255 0 0
-21.8978 -10.3862 -2.53545 255 0 0
-17.1712 -9.12094 0.612371 255 0 0
-22.0345 -10.4663 -2.60168 255 0 0
-18.8743 -10.6422 -0.447528 255 0 0
-18.7904 -10.3438 -0.781259 255 0 0
-17.7874 -10.5791 -0.233953 255 0 0
-17.7844 -10.5534 -0.148739 255 0 0
-18.2579 -10.743 -0.639618 255 0 0
-17.9928 -10.9326 -1.04661 255 0 0
-18.5863 -10.8803 -1.81577 255 0 0
-18.3421 -10.6757 -2.14193 255 0 0
-16.5976 -11.1913 -0.587113 255 0 0
-16.3053 -11.5006 -0.755199 255 0 0
-16.7191 -11.4253 -0.95545 255 0 0
-16.0485 -11.3109 -0.12792 255 0 0
-16.8937 -11.0972 -1.51826 255 0 0
-16.7572 -11.237 -1.36681 255 0 0
-16.987 -11.1348 -2.29295 255 0 0
-18.1806 -10.9754 -3.68433 255 0 0
-17.3975 -11.1947 -2.40217 255 0 0
-15.4831 -11.4235 -0.7371 255 0 0
-15.8598 -11.5229 -1.27755 255 0 0
-17.3125 -11.0852 -4.15872 255 0 0
-15.8817 -11.5061 -2.27591 255 0 0
-16.1387 -11.3989 -2.09906 255 0 0
-16.0374 -11.2444 -2.16756 255 0 0
-17.0815 -10.8451 -4.70292 255 0 0
-16.4558 -11.2085 -4.04776 255 0 0
-17.6169 -9.08109 0.783725 255 0 0
-19.7352 -10.7635 -0.156064 255 0 0
-18.4067 -10.3611 0.0533285 255 0 0
-19.8842 -10.4493 -1.57453 255 0 0
-18.7009 -10.5656 -0.833737 255 0 0
-17.2712 -10.6762 0.915464 255 0 0
-18.3783 -10.9176 -0.659461 255 0 0
-17.808 -11.014 -0.894696 255 0 0
-16.3697 -11.5104 -0.0205241 255 0 0
-16.1624 -11.4063 0.0495861 255 0 0
-18.4534 -11.0055 -3.39338 255 0 0
-16.8796 -11.2452 -0.910112 255 0 0
-16.3191 -11.4407 -0.299454 255 0 0
-17.149 -11.2923 -1.77755 255 0 0
-15.8658 -11.5036 -0.657633 255 0 0
-15.1042 -11.4701 -0.428531 255 0 0
-17.1832 -10.991 -3.59693 255 0 0
-19.9064 -10.4141 -0.200139 255 0 0
-19.5741 -10.4674 -1.1774 255 0 0
-18.2793 -10.5136 -0.066485 255 0 0
-17.8047 -10.5828 0.0640368 255 0 0
-18.4579 -10.6278 -2.24295 255 0 0
-17.3562 -10.5444 -1.8628 255 0 0
-18.5357 -10.9537 -3.49134 255 0 0
-16.9972 -11.2537 -1.84569 255 0 0
-16.6986 -11.1407 -2.38902 255 0 0
-14.9015 -11.3896 0.0185668 255 0 0
-18.2466 -10.2929 -0.151835 255 0 0
-17.1958 -10.7166 0.355275 255 0 0
-16.9853 -10.5639 -0.45766 255 0 0
-16.397 -11.2906 -1.00738 255 0 0
-15.9591 -11.4487 -0.125723 255 0 0
-17.9775 -10.8341 -4.16027 255 0 0
-14.7594 -11.4549 -0.0145341 255 0 0
-16.9156 -11.3418 -2.01379 255 0 0
-16.2639 -11.4292 -1.6896 255 0 0
-16.0972 -11.4301 -0.977127 255 0 0
-20.1578 -10.2353 -1.55406 255 0 0
-14.6581 -11.4383 -0.219196 255 0 0
-17.7305 -10.4329 -2.1162 255 0 0
-17.2523 -11.0624 -0.988279 255 0 0
-17.9797 -8.78516 0.960319 255 0 0
-18.1923 -8.61011 0.812524 255 0 0
-17.5838 -8.76201 0.804454 255 0 0
-18.1618 -8.61705 0.5679 255 0 0
-18.9405 -10.222 0.359976 255 0 0
-19.118 -10.2689 0.0907849 255 0 0
-20.2589 -10.627 -0.0298631 255 0 0
-18.4824 -10.3204 -0.100967 255 0 0
-19.9672 -10.517 -0.283356 255 0 0
-19.8384 -10.5085 -0.12726 255 0 0
-16.9977 -10.5655 0.274985 255 0 0
-20.4252 -10.4663 -0.396549 255 0 0
-20.0318 -10.5302 -0.211226 255 0 0
-20.0482 -10.4233 -0.264902 255 0 0
-17.2741 -10.6048 0.313882 255 0 0
-18.1521 -10.6165 -0.0717626 255 0 0
-16.4926 -10.5444 0.181997 255 0 0
-16.9674 -10.4503 0.147352 255 0 0
-19.5619 -10.4407 -0.391503 255 0 0
-17.8557 -10.284 -0.183775 255 0 0
-16.9962 -10.5228 0.085089 255 0 0
-18.1441 -10.4626 -0.0518202 255 0 0
-20.5754 -10.4549 -0.650329 255 0 0
-17.9213 -10.3685 -0.232711 255 0 0
-18.0813 -10.4491 -0.412234 255 0 0
-19.1793 -10.5015 -0.450881 255 0 0
-19.2057 -10.1344 -0.600847 255 0 0
-19.3086 -10.0968 -0.545364 255 0 0
-18.1011 -10.3911 -0.486963 255 0 0
-17.614 -10.4334 -0.165124 255 0 0
-17.7067 -10.5922 -0.262322 255 0 0
-20.0401 -10.4629 -0.683897 255 0 0
-17.4766 -10.4559 -0.336832 255 0 0
-18.7192 -10.7244 -0.601259 255 0 0
-18.8296 -10.6406 -0.627073 255 0 0
-18.762 -10.6416 -0.62208 255 0 0
-19.9902 -10.2853 -1.10635 255 0 0
-18.6099 -10.5156 -0.607827 255 0 0
-18.8737 -10.7789 -0.68609 255 0 0
-19.8655 -10.2886 -1.19414 255 0 0
-17.2109 -10.7066 -0.504115 255 0 0
-15.5525 -11.5285 0.237153 255 0 0
-18.4831 -10.668 -1.00138 255 0 0
-16.4822 -11.4283 -0.0971232 255 0 0
-18.9312 -10.3162 -1.19472 255 0 0
-18.6388 -10.8695 -0.992224 255 0 0
-18.4737 -10.7625 -1.12429 255 0 0
-18.8439 -10.4369 -1.04257 255 0 0
-18.2972 -10.6302 -1.22494 255 0 0
-18.0785 -10.7795 -1.10485 255 0 0
-18.121 -10.6533 -1.24564 255 0 0
-16.5114 -11.4207 -0.518188 255 0 0
-15.7375 -11.4625 -0.372632 255 0 0
-16.4099 -11.413 -0.37741 255 0 0
-16.1102 -11.5585 -0.49926 255 0 0
-18.9128 -10.2847 -1.34595 255 0 0
-16.2436 -11.3902 -0.643842 255 0 0
-16.6051 -11.4086 -0.555211 255 0 0
-16.5925 -11.3539 -0.691569 255 0 0
-18.1639 -10.6591 -1.35846 255 0 0
-15.4062 -11.6213 -0.284971 255 0 0
-15.805 -11.4915 -0.398589 255 0 0
-16.0397 -11.5545 -0.418748 255 0 0
-15.509 -11.7141 -0.502989 255 0 0
-15.6057 -11.5512 -0.513196 255 0 0
-16.3343 -11.415 -0.603866 255 0 0
-20.4461 -10.0216 -2.05993 255 0 0
-19.2694 -10.3445 -1.99368 255 0 0
-15.1739 -11.7057 -0.352745 255 0 0
-16.6982 -11.3182 -0.956536 255 0 0
-16.7775 -11.2083 -0.859833 255 0 0
-22.9134 -10.1076 -3.07013 255 0 0
-16.5096 -11.2699 -0.877035 255 0 0
-15.6804 -11.4861 -0.493658 255 0 0
-16.6235 -11.4823 -1.09332 255 0 0
-16.6682 -11.3124 -0.968555 255 0 0
-16.8613 -11.3573 -1.13437 255 0 0
-17.0119 -11.1838 -0.948522 255 0 0
-16.7771 -11.3007 -0.958888 255 0 0
-16.6242 -11.3687 -0.922065 255 0 0
-16.2788 -11.4236 -0.795358 255 0 0
-16.2393 -11.5312 -1.00255 255 0 0
-16.1111 -11.3815 -0.990119 255 0 0
-21.9577 -10.4459 -3.2361 255 0 0
-16.9185 -11.1823 -1.31109 255 0 0
-14.9283 -11.6639 -0.823519 255 0 0
-16.5471 -11.229 -1.44014 255 0 0
-15.0324 -11.5373 -0.842403 255 0 0
-21.5856 -10.486 -3.40364 255 0 0
-16.2489 -11.2007 -1.35761 255 0 0
-16.5273 -11.4218 -1.55417 255 0 0
-17.9237 -11.066 -2.27772 255 0 0
-16.4144 -11.3371 -1.57192 255 0 0
-15.5862 -11.3311 -1.2706 255 0 0
-16.3546 -11.3752 -1.65061 255 0 0
-16.0943 -11.3443 -1.81352 255 0 0
-16.5615 -11.2813 -1.85021 255 0 0
-17.5089 -11.1464 -2.31647 255 0 0
-17.2275 -11.2083 -2.23416 255 0 0
-17.3165 -11.1216 -2.08131 255 0 0
-16.2823 -11.055 -1.78157 255 0 0
-16.5471 -11.0921 -1.95326 255 0 0
-17.9004 -11.209 -2.53801 255 0 0
-15.8558 -11.5052 -1.90481 255 0 0
-17.7626 -11.1071 -2.98273 255 0 0
-17.0234 -11.2414 -2.38744 255 0 0
-16.6562 -11.2581 -2.63651 255 0 0
-16.5576 -11.2464 -2.40553 255 0 0
-15.9963 -11.3191 -2.29982 255 0 0
-17.7214 -11.1996 -2.97399 255 0 0
-18.7699 -10.8515 -3.47858 255 0 0
-19.4532 -10.6564 -4.06335 255 0 0
-19.5073 -10.7079 -4.00278 255 0 0
-18.6499 -10.8799 -3.79785 255 0 0
-18.2446 -10.9442 -3.52396 255 0 0
-17.1495 -10.9119 -3.11498 255 0 0
-18.4189 -10.6363 -3.60257 255 0 0
-15.3924 -11.471 -2.26304 255 0 0
-18.5075 -10.9218 -3.8179 255 0 0
-16.7731 -11.1192 -3.24557 255 0 0
-17.783 -10.9199 -3.59375 255 0 0
-16.3637 -11.1314 -3.37948 255 0 0
-17.1029 -11.2305 -3.79411 255 0 0
-17.575 -10.8338 -4.01665 255 0 0
-17.9482 -10.7085 -4.16943 255 0 0
-17.0539 -10.9385 -3.94494 255 0 0
-17.3603 -10.9547 -4.05478 255 0 0
-16.9409 -11.1502 -4.01455 255 0 0
-16.7064 -11.1898 -4.47561 255 0 0
-17.6588 -8.85746 1.04147 255 0 0
-18.0858 -8.83378 0.930767 255 0 0
-17.8854 -8.96908 0.824349 255 0 0
-17.5354 -9.11708 0.652238 255 0 0
-17.4711 -9.22321 0.448754 255 0 0
-17.2504 -9.39444 0.728772 255 0 0
-19.6545 -10.0999 0.252928 255 0 0
-17.1445 -10.6865 0.186992 255 0 0
-18.3004 -10.4841 0.0301915 255 0 0
-19.6436 -10.5313 -0.513908 255 0 0
-18.0587 -10.4394 0.109432 255 0 0
-20.8484 -10.6687 -0.431098 255 0 0
-16.8597 -10.7845 0.230473 255 0 0
-20.7708 -10.5784 -0.504457 255 0 0
-18.1832 -10.5397 -0.0192114 255 0 0
-19.1418 -10.233 -0.553835 255 0 0
-17.8389 -10.4463 -0.320089 255 0 0
-19.1668 -10.1896 -0.771904 255 0 0
-18.7192 -10.6669 -0.72782 255 0 0
-20.0614 -10.4099 -1.13166 255 0 0
-18.6969 -10.6995 -0.640545 255 0 0
-20.8827 -10.3142 -1.43134 255 0 0
-18.4863 -10.5144 -0.940813 255 0 0
-16.431 -11.4354 -0.242853 255 0 0
-16.2737 -11.4818 -0.1888 255 0 0
-16.4538 -11.5799 -0.322842 255 0 0
-18.1531 -10.765 -0.84861 255 0 0
-15.7649 -11.4187 -0.261599 255 0 0
-17.0069 -10.5873 -0.84051 255 0 0
-15.8606 -11.6747 -0.0125978 255 0 0
-22.1685 -10.2122 -2.21834 255 0 0
-18.8251 -10.2941 -1.47833 255 0 0
-16.4205 -11.6049 -0.505367 255 0 0
-16.2807 -11.4508 -0.488156 255 0 0
-16.1273 -11.3945 -0.339395 255 0 0
-15.5858 -11.3997 -0.182542 255 0 0
-17.4679 -10.6309 -1.00599 255 0 0
-20.4138 -9.91725 -2.08697 255 0 0
-20.2827 -9.92566 -2.00913 255 0 0
-21.8609 -10.3912 -2.55916 255 0 0
-15.1364 -11.5939 -0.400452 255 0 0
-15.5972 -11.5371 -0.54239 255 0 0
-14.9047 -11.7173 -0.186156 255 0 0
-15.0565 -11.579 -0.527814 255 0 0
-18.1322 -10.8454 -1.55422 255 0 0
-18.3297 -10.6837 -1.39813 255 0 0
-20.0449 -9.93913 -2.38999 255 0 0
-17.1416 -11.28 -1.08943 255 0 0
-15.8964 -11.6056 -0.791665 255 0 0
-15.4172 -11.5079 -0.701578 255 0 0
-16.099 -11.4082 -0.879512 255 0 0
-16.2615 -11.4105 -0.678392 255 0 0
-22.3205 -10.2981 -2.85135 255 0 0
-22.1712 -10.319 -2.9 255 0 0
-15.3027 -11.5096 -0.651424 255 0 0
-19.5626 -10.1807 -2.17032 255 0 0
-18.6524 -10.6519 -1.90545 255 0 0
-15.2138 -11.6845 -0.570638 255 0 0
-16.3981 -11.386 -1.14622 255 0 0
-16.0137 -11.4096 -0.974734 255 0 0
-15.4322 -11.662 -0.666892 255 0 0
-21.9118 -10.3838 -3.33892 255 0 0
-17.2652 -11.2014 -1.47538 255 0 0
-15.5377 -11.4707 -0.889448 255 0 0
-14.97 -11.4869 -0.942176 255 0 0
-16.6257 -11.289 -1.40567 255 0 0
-16.8606 -11.262 -1.14636 255 0 0
-16.4171 -11.2104 -1.35301 255 0 0
-19.1383 -10.1353 -2.6237 255 0 0
-16.7525 -11.3641 -1.54891 255 0 0
-17.0244 -11.2779 -1.88959 255 0 0
-16.0559 -11.4575 -1.22576 255 0 0
-19.9452 -9.77759 -3.06424 255 0 0
-16.9309 -11.1657 -1.73564 255 0 0
-15.4888 -11.5476 -1.46668 255 0 0
-17.8751 -10.889 -2.0554 255 0 0
-16.0779 -11.3231 -1.70973 255 0 0
-15.8304 -11.4023 -1.69222 255 0 0
-16.5022 -11.3256 -1.93215 255 0 0
-17.3172 -11.1554 -2.29001 255 0 0
-15.5649 -11.4438 -1.64316 255 0 0
-18.0215 -11.0689 -2.49179 255 0 0
-15.4112 -11.5978 -1.46921 255 0 0
-18.2271 -11.1176 -2.81439 255 0 0
-17.7533 -11.0078 -2.7282 255 0 0
-15.3634 -11.3884 -1.9854 255 0 0
-17.1322 -11.1434 -2.75479 255 0 0
-16.0249 -11.3257 -2.19441 255 0 0
-16.6395 -11.131 -2.49587 255 0 0
