-16.0392 -11.1671 -0.56006 0 0 255
-17.1675 -10.8283 -0.554318 0 0 255
-15.6885 -11.4646 -0.388386 0 0 255
-16.4578 -10.7641 -0.290977 0 0 255
-17.9385 -10.2619 0.355441 0 0 255
-15.8563 -9.09453 1.14024 0 0 255
-19.2234 -9.31638 1.66367 0 0 255
-16.6528 -10.6646 0.313314 0 0 255
-16.5027 -10.7152 0.326072 0 0 255
-16.2032 -10.8283 0.333983 0 0 255
-16.62 -10.9748 -1.08763 0 0 255
-16.5986 -11.0345 -0.577705 0 0 255
-18.4267 -10.4845 0.247156 0 0 255
-16.7039 -11.2036 -0.647491 0 0 255
-18.9346 -10.7797 -2.88055 0 0 255
-18.9737 -10.7816 -2.53459 0 0 255
-15.8285 -10.9929 -2.24057 0 0 255
-14.9872 -11.9971 -2.49661 0 0 255
-16.8847 -10.8102 -1.29207 0 0 255
-18.5288 -10.2388 -0.880963 0 0 255
-17.0765 -10.8309 -1.03985 0 0 255
-16.0092 -11.1673 -1.0193 0 0 255
-17.8432 -10.8242 -0.644791 0 0 255
-19.4425 -10.6052 -0.245267 0 0 255
-18.4738 -10.425 -0.084096 0 0 255
-16.9911 -10.8672 -0.168022 0 0 255
-16.2585 -10.9958 -0.175825 0 0 255
-15.9467 -11.1987 -0.176776 0 0 255
-20.4342 -10.2912 0.490265 0 0 255
-18.5763 -10.0601 0.373349 0 0 255
-15.8905 -10.9221 0.419489 0 0 255
-15.6957 -10.8689 -2.92751 0 0 255
-16.0868 -10.7828 -2.7995 0 0 255
-18.1828 -10.9732 -2.5168 0 0 255
-20.0293 -10.4783 -2.41947 0 0 255
-17.7426 -10.8037 -1.63191 0 0 255
-15.621 -11.5037 -0.825163 0 0 255
-19.4949 -10.5936 -0.320036 0 0 255
-19.5727 -10.5616 -0.271412 0 0 255
-18.4937 -10.404 -0.10011 0 0 255
-19.8892 -10.4733 0.168662 0 0 255
-16.2272 -11.0244 -0.215904 0 0 255
-17.1599 -10.8356 -0.028562 0 0 255
-18.6626 -10.0387 0.320368 0 0 255
-16.423 -10.7413 0.326222 0 0 255
-16.2371 -10.8162 0.333134 0 0 255
-20.9463 -9.94911 1.6221 0 0 255
-19.76 -9.38836 1.65088 0 0 255
-15.8149 -8.77931 1.67813 0 0 255
-14.9833 -12.0132 -3.19716 0 0 255
-17.8409 -10.6283 -1.52786 0 0 255
-17.8235 -10.7193 -1.406 0 0 255
-19.6925 -10.4855 -0.880186 0 0 255
-19.7612 -10.5255 0.142712 0 0 255
-17.3894 -10.4525 0.336608 0 0 255
-16.7673 -10.6474 0.33487 0 0 255
-21.0178 -9.92691 1.58262 0 0 255
-20.9265 -9.87915 1.59592 0 0 255
-16.6001 -10.9765 -1.93102 0 0 255
-18.6217 -10.3443 -0.969267 0 0 255
-18.3995 -10.119 0.381724 0 0 255
-16.5906 -11.0055 -1.2141 0 0 255
-18.5496 -10.4424 -0.156731 0 0 255
-21.0137 -10.1487 1.37896 0 0 255
-17.8045 -10.8271 -0.35823 0 0 255
-20.4448 -10.3189 -3.85202 0 0 255
-16.5259 -10.789 -2.99612 0 0 255
-20.7389 -10.24 -1.58759 0 0 255
-18.5978 -10.225 -0.901489 0 0 255
-17.2359 -10.7709 -1.03786 0 0 255
-17.7291 -10.8499 -0.79431 0 0 255
-17.6812 -10.3571 0.367907 0 0 255
-17.0683 -10.5491 0.367828 0 0 255
-19.8052 -10.4978 -2.92042 0 0 255
-17.2994 -10.403 -2.82273 0 0 255
-20.1292 -10.4323 -2.43076 0 0 255
-15.0311 -11.9922 -2.23155 0 0 255
-18.4653 -10.6291 -0.389134 0 0 255
-15.9473 -11.2073 -0.17668 0 0 255
-16.9133 -10.5925 0.516405 0 0 255
-16.1208 -10.8316 0.408476 0 0 255
-18.6564 -10.8689 -3.48414 0 0 255
-15.8857 -10.8588 -2.79943 0 0 255
-14.9608 -12.0127 -3.19086 0 0 255
-18.153 -10.6958 -0.206519 0 0 255
-20.9604 -9.94758 1.5941 0 0 255
-15.9216 -8.70889 1.67515 0 0 255
-15.2272 -11.29 -2.1381 0 0 255
-19.8562 -10.4835 -0.20747 0 0 255
-18.5089 -10.1122 0.316454 0 0 255
-18.4626 -10.4294 -0.540348 0 0 255
-15.3018 -11.1821 -2.9392 0 0 255
-15.9202 -11.0749 -2.18005 0 0 255
-15.331 -11.8941 -3.35614 0 0 255
-18.5212 -10.2667 -0.839567 0 0 255
-16.5594 -10.981 -1.36142 0 0 255
-17.8659 -10.7849 -0.623381 0 0 255
-14.9904 -11.998 -2.45727 0 0 255
-17.6743 -10.839 -0.535573 0 0 255
-17.3027 -10.4644 0.372198 0 0 255
-15.4951 -11.5354 -0.828597 0 0 255
-16.0543 -10.8666 0.4909 0 0 255
-17.179 -10.816 -0.030359 0 0 255
-16.3675 -8.9474 1.04901 0 0 255
-15.9346 -11.1948 -0.407438 0 0 255
-18.5344 -10.0881 0.322123 0 0 255
-15.993 -11.1698 -0.375008 0 0 255
-14.4891 -12.1684 -3.29208 0 0 255
-17.1487 -10.8277 -1.00608 0 0 255
-15.0123 -11.9903 -2.24766 0 0 255
-21.0162 -9.8798 1.56315 0 0 255
-15.3479 -11.4099 -1.9706 0 0 255
-20.1375 -10.3913 -0.054387 0 0 255
-18.4693 -10.5019 -0.499916 0 0 255
-15.8927 -11.0383 -2.1058 0 0 255
-18.4865 -10.9039 -3.32574 0 0 255
-18.9353 -10.7603 -1.99258 0 0 255
-20.2349 -10.323 0.076615 0 0 255
-20.2309 -10.3357 0.283792 0 0 255
-20.8927 -10.1301 0.905215 0 0 255
-21.0983 -10.0207 1.38448 0 0 255
-17.124 -10.8342 -0.722478 0 0 255
-17.1434 -10.8371 -0.038628 0 0 255
-16.0031 -11.1789 -0.718639 0 0 255
-16.0974 -11.1501 -0.5791 0 0 255
-16.0711 -10.8635 0.373905 0 0 255
-17.718 -10.8078 -1.13093 0 0 255
-15.4854 -11.8487 -3.33029 0 0 255
-17.6975 -10.8454 -0.378156 0 0 255
-17.1046 -10.8465 -0.709893 0 0 255
-16.0529 -11.1639 -0.554033 0 0 255
-16.053 -11.1657 -0.032205 0 0 255
-18.0978 -10.7493 -0.111901 0 0 255
-16.8186 -10.9393 -1.06876 0 0 255
-16.7977 -10.9437 -1.06172 0 0 255
-16.0405 -11.1677 -0.797222 0 0 255
-16.4227 -10.7521 0.309392 0 0 255
-17.6982 -10.6868 -2.04987 0 0 255
-15.2094 -11.9304 -2.87192 0 0 255
-15.1928 -11.3851 -2.12126 0 0 255
-21.0755 -10.0461 1.37446 0 0 255
-21.0293 -9.92887 1.52327 0 0 255
-17.8602 -10.8047 -1.05292 0 0 255
-16.5757 -11.0003 -1.93531 0 0 255
-16.5877 -11.0059 -1.7966 0 0 255
-16.5927 -10.9846 -1.14475 0 0 255
-21.1534 -9.98064 1.27962 0 0 255
-16.6558 -10.987 -0.859642 0 0 255
-17.0111 -10.6712 -2.16911 0 0 255
-18.3312 -10.5294 -0.959265 0 0 255
-20.0566 -10.3869 0.281144 0 0 255
-17.2126 -10.8062 -0.980574 0 0 255
-15.9451 -8.68751 1.66293 0 0 255
-17.1278 -10.837 -0.723392 0 0 255
-17.1233 -10.8379 -0.193216 0 0 255
-16.1724 -11.127 -0.713989 0 0 255
-16.0091 -11.1831 -0.718446 0 0 255
-16.1737 -11.1348 -0.200358 0 0 255
-20.1892 -10.3417 0.350783 0 0 255
-17.961 -10.7586 -1.15411 0 0 255
-18.2285 -10.1814 0.418423 0 0 255
-16.6447 -10.9042 -0.927225 0 0 255
-15.5722 -11.4722 -0.56773 0 0 255
-20.0295 -10.4113 -0.091941 0 0 255
-16.4326 -11.0309 -1.91972 0 0 255
-21.0998 -9.92095 1.51938 0 0 255
-21.0741 -10.0285 1.39334 0 0 255
-18.6534 -10.03 0.377533 0 0 255
-16.6249 -10.9502 -1.06106 0 0 255
-16.4937 -11.1058 -0.811639 0 0 255
-21.0972 -10.0103 1.35046 0 0 255
-16.7437 -10.9406 -1.73978 0 0 255
-16.1573 -10.8701 -2.10375 0 0 255
-18.5557 -10.3421 -0.704833 0 0 255
-16.4519 -11.0223 -1.84725 0 0 255
-16.5309 -10.966 -0.621603 0 0 255
-17.1224 -10.8327 -0.722621 0 0 255
-15.2155 -11.26 -2.16561 0 0 255
-15.9358 -11.2046 -0.194645 0 0 255
-21.1284 -10.0416 1.17791 0 0 255
-18.5056 -10.9012 -3.41004 0 0 255
-16.0905 -11.1567 -0.625865 0 0 255
-18.3553 -10.493 -0.835176 0 0 255
-17.6331 -10.6694 -2.10344 0 0 255
-16.0229 -10.9536 -2.16855 0 0 255
-21.1332 -10.0193 1.2694 0 0 255
-16.1662 -10.96 -2.12542 0 0 255
-17.0108 -10.6344 -1.93134 0 0 255
-16.6299 -10.9515 -1.0094 0 0 255
-20.2071 -10.351 0.163263 0 0 255
-20.1873 -10.3529 0.270877 0 0 255
-21.0526 -10.08 0.895039 0 0 255
-19.3767 -10.6238 -1.20748 0 0 255
-16.3043 -11.0876 -1.47708 0 0 255
-16.2617 -11.1005 -1.56841 0 0 255
-15.1831 -11.9399 -1.66738 0 0 255
-16.9697 -10.8591 -0.927371 0 0 255
-16.2664 -11.091 -0.940916 0 0 255
-21.1259 -10.0364 1.19081 0 0 255
-20.1329 -10.3635 0.169187 0 0 255
-19.9343 -10.4531 -1.03977 0 0 255
-19.5215 -10.5815 -2.58994 0 0 255
-17.1216 -10.8319 -0.630686 0 0 255
-17.1157 -10.8377 -0.717475 0 0 255
-16.4693 -10.7973 -0.404306 0 0 255
-16.5976 -11.021 -1.02202 0 0 255
-15.6598 -11.3 -2.16591 0 0 255
-15.1788 -11.9402 -1.64294 0 0 255
-20.1609 -10.3647 0.388129 0 0 255
-16.2253 -11.1195 -1.44508 0 0 255
-15.6211 -11.2876 -2.20237 0 0 255
-16.1373 -10.8888 -2.31597 0 0 255
-15.8227 -11.2084 -2.37578 0 0 255
-16.6925 -10.9244 -1.3193 0 0 255
-19.941 -10.4611 -1.0321 0 0 255
-19.806 -10.4877 -1.84392 0 0 255
-16.0777 -11.164 -0.20693 0 0 255
-16.0897 -11.1549 -0.839448 0 0 255
-15.9206 -11.2074 -0.709317 0 0 255
-16.2565 -11.0913 -1.4842 0 0 255
-15.5728 -11.5194 -0.7883 0 0 255
-15.1562 -11.965 -2.94238 0 0 255
-20.1998 -10.3607 0.247364 0 0 255
-19.9972 -10.4269 0.066939 0 0 255
-19.5148 -10.5838 -2.58114 0 0 255
-18.5147 -10.9003 -2.77123 0 0 255
-16.832 -10.9172 -0.830644 0 0 255
-15.2142 -11.9366 -2.87112 0 0 255
-15.6835 -11.2795 -2.23496 0 0 255
-16.5181 -11.0534 -1.12784 0 0 255
-16.0746 -10.9397 -2.12637 0 0 255
-16.9168 -10.9123 -0.941684 0 0 255
-15.3929 -11.3897 -1.62211 0 0 255
-19.9309 -10.4532 -1.03189 0 0 255
-19.8007 -10.4778 -1.85045 0 0 255
-17.195 -10.8163 -0.041556 0 0 255
-16.3475 -10.7778 0.49516 0 0 255
-19.4879 -10.5912 -2.53697 0 0 255
-15.9659 -11.1894 -0.245983 0 0 255
-18.2982 -10.9732 -3.5541 0 0 255
-15.1521 -11.9588 -2.93438 0 0 255
-17.2313 -10.8035 -0.388292 0 0 255
-16.0344 -11.1761 -0.026831 0 0 255
-16.0472 -11.1819 -0.265177 0 0 255
-17.048 -10.6458 -2.17818 0 0 255
-14.7561 -12.0894 -2.92426 0 0 255
-15.6825 -11.4891 -0.279954 0 0 255
-16.6119 -10.992 -0.876029 0 0 255
-15.2468 -11.5342 -1.33044 0 0 255
-15.4629 -11.4326 -1.67554 0 0 255
-16.1225 -11.1838 -1.32752 0 0 255
-20.0458 -10.4052 0.028196 0 0 255
-16.3479 -10.7766 0.493512 0 0 255
-16.3375 -10.7714 0.377292 0 0 255
-16.0891 -11.1467 -0.716621 0 0 255
-16.0336 -10.9589 -2.2247 0 0 255
-15.1499 -11.9574 -2.93129 0 0 255
-21.0256 -9.92134 1.6021 0 0 255
-18.3011 -10.6916 -0.121254 0 0 255
-19.4838 -10.6183 -1.642 0 0 255
-16.0742 -11.1689 -0.040331 0 0 255
-16.0567 -11.1663 -0.109338 0 0 255
-15.617 -11.5124 -0.990625 0 0 255
-15.9398 -10.9858 -2.1796 0 0 255
-15.9347 -10.8953 0.388046 0 0 255
-15.7057 -11.4786 -0.315469 0 0 255
-17.1252 -10.6184 -2.2654 0 0 255
-15.6942 -11.4619 -0.857633 0 0 255
-16.1374 -10.829 0.532333 0 0 255
-16.4123 -11.1377 -0.873972 0 0 255
-16.7755 -10.948 -1.87936 0 0 255
-16.2868 -10.9074 -0.156454 0 0 255
-15.5226 -11.3202 -2.07799 0 0 255
-16.7869 -10.7578 -0.913521 0 0 255
-16.4052 -11.0398 -1.55882 0 0 255
-16.0504 -11.1379 -1.33498 0 0 255
-20.155 -10.3746 0.325816 0 0 255
-20.0313 -10.4115 0.267648 0 0 255
-17.9744 -10.2594 0.519603 0 0 255
-18.5122 -10.2483 -0.86127 0 0 255
-16.4007 -10.8026 -0.227941 0 0 255
-16.272 -10.9581 -0.217224 0 0 255
-16.2915 -10.986 -0.28118 0 0 255
-17.7785 -10.8219 -1.22877 0 0 255
-19.7812 -10.5212 -2.15748 0 0 255
-16.4206 -11.0449 -1.69114 0 0 255
-16.5513 -10.9862 -2.10021 0 0 255
-15.7211 -11.4719 -1.75524 0 0 255
-16.0419 -10.9278 -2.2167 0 0 255
-16.0374 -10.9711 -2.2296 0 0 255
-21.0014 -9.81656 1.61605 0 0 255
-17.3722 -10.4535 0.513606 0 0 255
-16.7489 -10.6427 0.51237 0 0 255
-17.1947 -10.8276 -0.035871 0 0 255
-18.5548 -10.3159 -1.01783 0 0 255
-16.4812 -10.7973 -0.239703 0 0 255
-16.3279 -10.8709 -0.221133 0 0 255
-15.6143 -11.509 -0.989261 0 0 255
-17.2259 -10.5801 -2.21495 0 0 255
-15.912 -11.0549 -2.03146 0 0 255
-15.9626 -10.9509 -2.23372 0 0 255
-15.8619 -11.078 -2.42543 0 0 255
-21.0359 -9.84272 1.57888 0 0 255
-15.497 -11.537 -1.27909 0 0 255
-18.2221 -10.1502 0.326045 0 0 255
-16.3457 -10.8532 -0.222092 0 0 255
-15.6266 -10.9799 -2.87309 0 0 255
-15.958 -11.0927 -3.22766 0 0 255
-15.9208 -11.1209 -3.24483 0 0 255
-20.0461 -10.5238 0.076783 0 0 255
-16.5628 -10.9492 -1.34636 0 0 255
-16.274 -11.0296 -0.181421 0 0 255
-15.6591 -11.5043 -0.372654 0 0 255
-16.6461 -10.9889 -1.2432 0 0 255
-15.4831 -11.3144 -2.0287 0 0 255
-18.5626 -10.4615 -0.477947 0 0 255
-16.0065 -11.129 -0.190598 0 0 255
-20.1394 -10.3545 0.165921 0 0 255
-16.3883 -11.1722 -1.47216 0 0 255
-17.2355 -10.5812 -0.997052 0 0 255
-17.4195 -10.4238 0.505732 0 0 255
-18.0172 -10.2435 0.331046 0 0 255
-20.1069 -10.3878 0.046599 0 0 255
-16.4689 -10.7624 -0.360793 0 0 255
-17.7725 -10.8309 -0.638573 0 0 255
-17.7295 -10.8504 -0.795371 0 0 255
-19.6339 -10.5506 -1.61947 0 0 255
-15.8271 -11.4514 -0.634052 0 0 255
-16.0149 -11.1597 -0.756036 0 0 255
-15.461 -11.5602 -0.954576 0 0 255
-19.1126 -10.7219 -2.17958 0 0 255
-20.3768 -10.3505 -2.70533 0 0 255
-18.8946 -10.803 -2.53697 0 0 255
-15.7163 -11.4713 -1.75159 0 0 255
-16.5822 -10.9953 -2.11276 0 0 255
-18.0386 -10.2333 0.509042 0 0 255
-16.92 -10.5921 0.378223 0 0 255
-15.9794 -10.8866 0.368088 0 0 255
-17.0254 -10.8418 -0.14567 0 0 255
-16.0658 -11.1755 -0.029095 0 0 255
-15.9832 -11.202 -0.175004 0 0 255
-19.5891 -10.5706 -1.84688 0 0 255
-16.6483 -10.9931 -1.72498 0 0 255
-15.773 -11.442 -1.45846 0 0 255
-15.5997 -11.3192 -2.35989 0 0 255
-15.1448 -11.9514 -3.1133 0 0 255
-20.2427 -10.337 -0.647568 0 0 255
-16.1541 -11.1335 -0.173066 0 0 255
-15.5457 -11.5244 -0.799746 0 0 255
-16.9522 -10.6477 -2.27181 0 0 255
-15.8556 -11.1121 -2.38815 0 0 255
-19.6565 -10.549 -0.287847 0 0 255
-18.0194 -10.7598 -0.396069 0 0 255
-15.8457 -11.3336 -1.27364 0 0 255
-16.9869 -10.7796 -2.09784 0 0 255
-16.3316 -10.774 0.360431 0 0 255
-15.6039 -11.5049 -0.856953 0 0 255
-21.0176 -10.0927 1.40855 0 0 255
-15.8238 -11.3164 -1.30717 0 0 255
-15.428 -11.4206 -1.56722 0 0 255
-19.1385 -9.41405 1.66102 0 0 255
-21.0509 -10.0686 1.40465 0 0 255
-18.6052 -10.0427 0.570447 0 0 255
-20.0718 -10.4163 0.468429 0 0 255
-15.8976 -10.9209 0.419437 0 0 255
-17.6435 -10.3594 0.363298 0 0 255
-18.6315 -10.0486 0.33158 0 0 255
-20.0643 -10.3913 0.329836 0 0 255
-20.1784 -10.3172 0.307382 0 0 255
-19.8645 -10.4793 0.136345 0 0 255
-19.4261 -10.6027 -0.255701 0 0 255
-16.9808 -10.8545 -0.160786 0 0 255
-15.7391 -11.4673 -0.14598 0 0 255
-16.2789 -10.9571 -0.212598 0 0 255
-19.5924 -10.6112 -0.662933 0 0 255
-16.4395 -10.8201 -0.413932 0 0 255
-19.4865 -10.5904 -0.672455 0 0 255
-18.5179 -10.2551 -0.873595 0 0 255
-18.5394 -10.2045 -0.889903 0 0 255
-19.7717 -10.4983 -1.03502 0 0 255
-16.1009 -11.1269 -1.01732 0 0 255
-16.01 -11.1658 -1.01207 0 0 255
-17.7858 -10.7946 -1.23129 0 0 255
-16.0424 -11.1271 -1.01942 0 0 255
-19.6428 -10.5676 -1.88577 0 0 255
-15.5556 -11.5114 -1.33666 0 0 255
-18.9174 -10.7792 -1.87704 0 0 255
-15.1408 -11.9492 -1.8604 0 0 255
-16.5513 -11.0011 -2.09545 0 0 255
-16.6001 -10.995 -2.11644 0 0 255
-15.5993 -11.2634 -2.3334 0 0 255
-15.0643 -11.9842 -2.74411 0 0 255
-15.2356 -11.9283 -2.88558 0 0 255
-15.0116 -12.0286 -3.20389 0 0 255
-15.7983 -11.7498 -3.48212 0 0 255
-15.8014 -8.7199 1.67849 0 0 255
-16.4233 -8.91872 1.1448 0 0 255
-20.9817 -9.90184 1.61133 0 0 255
-16.7082 -8.82596 1.13697 0 0 255
-20.1692 -10.3829 0.653422 0 0 255
-16.3978 -10.7567 0.558308 0 0 255
-16.0567 -11.1791 -0.026365 0 0 255
-16.2066 -11.0521 -0.14177 0 0 255
-20.3012 -10.3303 -0.615952 0 0 255
-15.6197 -11.4973 -0.780974 0 0 255
-16.0465 -11.1664 -0.978352 0 0 255
-18.9747 -10.7612 -1.61037 0 0 255
-16.3478 -11.0799 -1.81957 0 0 255
-15.1513 -11.9408 -3.11347 0 0 255
-19.3063 -9.22792 1.65478 0 0 255
-20.1015 -10.3588 0.362564 0 0 255
-16.2429 -11.0822 -0.117231 0 0 255
-19.6962 -10.5322 -0.654637 0 0 255
-17.1702 -10.8303 -0.981178 0 0 255
-15.6285 -11.5009 -0.824989 0 0 255
-15.4948 -11.5428 -1.2151 0 0 255
-17.2018 -10.4241 -2.78568 0 0 255
-19.6 -10.6302 -3.50564 0 0 255
-15.9439 -11.1105 -3.2233 0 0 255
-14.7719 -12.0676 -3.23615 0 0 255
-17.4063 -10.6329 0.086693 0 0 255
-19.7452 -10.4616 -0.052928 0 0 255
-16.3115 -10.8851 -0.204425 0 0 255
-16.5032 -10.9677 -0.714367 0 0 255
-18.1882 -10.1965 0.376821 0 0 255
-16.0355 -11.1664 -0.193392 0 0 255
-16.0817 -11.1819 -1.09345 0 0 255
-15.5606 -11.5049 -1.28939 0 0 255
-15.169 -11.883 -2.88458 0 0 255
-16.308 -11.1437 -0.93462 0 0 255
-15.8554 -11.2895 -1.31126 0 0 255
-17.0765 -10.615 -1.92398 0 0 255
-16.71 -11.1406 -1.81581 0 0 255
-16.0987 -11.1457 -3.07046 0 0 255
-15.6144 -11.807 -3.35534 0 0 255
-14.8977 -12.0401 -3.24132 0 0 255
-15.6182 -11.813 -3.25369 0 0 255
-15.1395 -11.9544 -3.09563 0 0 255
-16.3159 -10.8425 -2.99477 0 0 255
-14.9109 -12.0236 -3.03245 0 0 255
-14.8816 -12.0359 -3.02552 0 0 255
-16.3374 -10.8442 -2.98409 0 0 255
-14.9766 -12.0023 -3.02525 0 0 255
-16.7274 -10.7274 -2.98666 0 0 255
-14.7604 -12.0977 -2.89876 0 0 255
-18.4784 -10.9139 -3.34869 0 0 255
-14.7257 -12.0838 -2.88716 0 0 255
-15.2295 -11.9337 -2.86531 0 0 255
-17.2158 -10.456 -2.77595 0 0 255
-15.3876 -11.8721 -2.7826 0 0 255
-19.5825 -10.591 -3.26628 0 0 255
-19.5831 -10.5989 -3.24353 0 0 255
-15.3297 -11.8928 -2.73084 0 0 255
-15.3664 -11.884 -2.73232 0 0 255
-20.6946 -10.2182 -3.19418 0 0 255
-14.9533 -12.0197 -2.55535 0 0 255
-15.0107 -12.0003 -2.55871 0 0 255
-15.056 -11.9978 -2.55932 0 0 255
-14.9761 -12.0044 -2.51968 0 0 255
-14.9446 -12.0062 -2.49829 0 0 255
-18.6182 -10.8929 -2.89376 0 0 255
-19.893 -10.469 -2.97203 0 0 255
-19.4961 -10.6214 -2.86323 0 0 255
-20.3048 -10.357 -2.91133 0 0 255
-18.538 -10.9116 -2.5497 0 0 255
-18.5247 -10.9129 -2.52318 0 0 255
-18.6074 -10.8866 -2.52551 0 0 255
-18.6416 -10.8744 -2.52223 0 0 255
-20.168 -10.3795 -2.58159 0 0 255
-19.5703 -10.571 -2.52121 0 0 255
-19.4758 -10.6108 -2.51057 0 0 255
-19.5462 -10.5778 -2.49406 0 0 255
-17.8551 -10.4147 -2.19418 0 0 255
-19.2417 -10.689 -2.38482 0 0 255
-15.0529 -11.9784 -1.87435 0 0 255
-15.1237 -11.9695 -1.86042 0 0 255
-20.649 -10.2256 -2.24391 0 0 255
-18.9349 -10.7817 -2.11795 0 0 255
-20.3466 -10.3435 -2.17355 0 0 255
-17.6974 -10.8141 -1.83526 0 0 255
-20.0041 -10.4243 -2.04766 0 0 255
-17.7173 -10.8123 -1.82733 0 0 255
-19.0961 -10.7178 -1.89166 0 0 255
-19.5945 -10.575 -1.85723 0 0 255
-17.7414 -10.796 -1.63156 0 0 255
-17.7313 -10.8007 -1.61438 0 0 255
-17.7319 -10.8013 -1.57531 0 0 255
-20.6058 -10.2295 -1.74402 0 0 255
-15.532 -11.4873 -1.38751 0 0 255
-15.5136 -11.4913 -1.38511 0 0 255
-19.34 -10.6496 -1.60229 0 0 255
-17.7399 -10.8008 -1.39318 0 0 255
-17.7984 -10.7837 -1.3915 0 0 255
-17.73 -10.8176 -1.39216 0 0 255
-17.7543 -10.8136 -1.38323 0 0 255
-17.7934 -10.7832 -1.37752 0 0 255
-17.776 -10.7902 -1.37844 0 0 255
-16.6893 -10.9571 -1.29745 0 0 255
-16.6865 -10.9603 -1.28512 0 0 255
-17.9691 -10.7322 -1.32739 0 0 255
-19.625 -10.5575 -1.32259 0 0 255
-16.7515 -10.9659 -1.08383 0 0 255
-17.7862 -10.7036 -1.10563 0 0 255
-16.6148 -10.9317 -1.02583 0 0 255
-16.5992 -11.0315 -0.986293 0 0 255
-17.3028 -10.7803 -0.986037 0 0 255
-19.9445 -10.4527 -1.05401 0 0 255
-20.5901 -10.2449 -1.02477 0 0 255
-20.0128 -10.4344 -1.00292 0 0 255
-16.4758 -10.9029 -0.723365 0 0 255
-17.677 -10.8712 -0.763346 0 0 255
-16.5373 -10.9016 -0.702314 0 0 255
-17.2854 -10.7905 -0.733722 0 0 255
-18.1764 -10.6675 -0.689894 0 0 255
-18.2005 -10.6575 -0.642233 0 0 255
-17.7646 -10.7258 -0.500039 0 0 255
-17.3041 -10.7814 -0.474325 0 0 255
-18.3134 -10.6329 -0.493986 0 0 255
-18.3562 -10.6187 -0.460889 0 0 255
-15.9318 -11.2075 -0.210063 0 0 255
-16.1906 -11.1286 -0.206802 0 0 255
-20.3784 -10.3124 -0.2537 0 0 255
-19.55 -10.5832 -0.09346 0 0 255
-20.5894 -10.2289 -0.051041 0 0 255
-19.3252 -10.636 0.04069 0 0 255
-19.3259 -10.6404 0.054817 0 0 255
-20.0552 -10.3885 0.105766 0 0 255
-19.7171 -10.5264 0.113998 0 0 255
-19.7093 -10.5322 0.136842 0 0 255
-20.5212 -10.2626 0.171119 0 0 255
-19.9609 -10.4416 0.298949 0 0 255
-17.7154 -10.3459 0.387447 0 0 255
-17.9285 -10.2767 0.505277 0 0 255
-16.9644 -10.5769 0.491489 0 0 255
-17.3135 -10.4719 0.502355 0 0 255
-16.9585 -10.5812 0.504037 0 0 255
-18.1862 -10.2059 0.580338 0 0 255
-20.3465 -10.3233 0.675685 0 0 255
-19.8083 -10.4871 0.671455 0 0 255
-20.6999 -10.1875 0.895643 0 0 255
-20.6955 -10.1805 0.909499 0 0 255
-19.8797 -10.4444 1.4068 0 0 255
-19.957 -10.4217 1.41707 0 0 255
-15.4424 -11.8651 -3.44046 0 0 255
-14.5038 -12.1746 -3.23314 0 0 255
-15.4652 -11.8527 -3.34598 0 0 255
-15.8136 -11.7526 -3.38448 0 0 255
-15.4767 -11.8503 -3.33255 0 0 255
-15.1905 -11.9556 -3.17932 0 0 255
-14.9337 -12.0144 -3.11015 0 0 255
-14.8255 -12.06 -3.09534 0 0 255
-15.0451 -11.9766 -3.11556 0 0 255
-15.0402 -11.9853 -3.10022 0 0 255
-15.3547 -11.884 -3.12046 0 0 255
-16.3166 -10.8516 -2.9868 0 0 255
-14.8928 -12.0344 -3.01216 0 0 255
-14.9713 -12.0053 -3.00291 0 0 255
-14.8045 -12.0725 -2.9711 0 0 255
-16.7571 -10.718 -2.98566 0 0 255
-14.7566 -12.0967 -2.91791 0 0 255
-15.1637 -11.9494 -2.95813 0 0 255
-19.5521 -10.6067 -3.23631 0 0 255
-19.3618 -10.6405 -3.13341 0 0 255
-20.1975 -10.3825 -3.21565 0 0 255
-19.3578 -10.6478 -3.11548 0 0 255
-20.2979 -10.3374 -3.14313 0 0 255
-14.9564 -12.0188 -2.53508 0 0 255
-18.4545 -10.9298 -2.89656 0 0 255
-18.7939 -10.8248 -2.87495 0 0 255
-18.9904 -10.7618 -2.86353 0 0 255
-19.5561 -10.5839 -2.91377 0 0 255
-20.0945 -10.428 -2.93654 0 0 255
-19.4376 -10.6243 -2.86155 0 0 255
-18.248 -10.9796 -2.68681 0 0 255
-18.5863 -10.8875 -2.67118 0 0 255
-15.9331 -10.9711 -2.21617 0 0 255
-20.317 -10.329 -2.7885 0 0 255
-15.9601 -10.9564 -2.2047 0 0 255
-20.6867 -10.212 -2.79377 0 0 255
-18.4418 -10.9363 -2.54926 0 0 255
-20.1888 -10.3876 -2.70883 0 0 255
-18.4623 -10.9433 -2.53191 0 0 255
-18.579 -10.8998 -2.53082 0 0 255
-20.2642 -10.3629 -2.68185 0 0 255
-18.9371 -10.796 -2.55647 0 0 255
-17.1005 -10.6214 -2.1753 0 0 255
-17.1401 -10.6212 -2.16329 0 0 255
-20.1956 -10.3693 -2.58145 0 0 255
-20.2041 -10.3772 -2.50923 0 0 255
-17.8321 -10.4965 -2.14019 0 0 255
-15.161 -11.9417 -2.02189 0 0 255
-20.0332 -10.4376 -2.4327 0 0 255
-19.2177 -10.6924 -2.22418 0 0 255
-19.2467 -10.6815 -2.22182 0 0 255
-19.2169 -10.6988 -2.20463 0 0 255
-19.0525 -10.7492 -2.17471 0 0 255
-17.8161 -10.6373 -1.9168 0 0 255
-19.1117 -10.7173 -2.0228 0 0 255
-18.7587 -10.838 -1.86771 0 0 255
-19.1257 -10.7183 -1.8884 0 0 255
-16.3268 -11.0779 -1.60439 0 0 255
-18.7998 -10.8185 -1.85043 0 0 255
-19.4535 -10.6242 -1.862 0 0 255
-20.3758 -10.3028 -1.89263 0 0 255
-20.6339 -10.236 -1.88377 0 0 255
-20.542 -10.2667 -1.85456 0 0 255
-18.8851 -10.7858 -1.60984 0 0 255
-19.6034 -10.56 -1.63454 0 0 255
-15.3303 -11.5513 -1.33579 0 0 255
-20.0836 -10.3999 -1.6111 0 0 255
-20.37 -10.3076 -1.56412 0 0 255
-16.7187 -10.9594 -1.29898 0 0 255
-17.7331 -10.8145 -1.37581 0 0 255
-16.7957 -10.9896 -1.25846 0 0 255
-19.5991 -10.57 -1.32636 0 0 255
-18.077 -10.7142 -1.21139 0 0 255
-20.5304 -10.2574 -1.09076 0 0 255
-20.5281 -10.2542 -1.07232 0 0 255
-20.5621 -10.241 -1.0696 0 0 255
-16.4938 -11.04 -0.824222 0 0 255
-20.0768 -10.4006 -0.983913 0 0 255
-15.6584 -11.4958 -0.766854 0 0 255
-16.5421 -10.8946 -0.747741 0 0 255
-16.1534 -11.1311 -0.739819 0 0 255
-16.074 -11.1539 -0.733979 0 0 255
-17.1739 -10.8228 -0.748271 0 0 255
-19.4214 -10.6127 -0.780307 0 0 255
-20.4299 -10.2824 -0.639684 0 0 255
-19.4651 -10.594 -0.587182 0 0 255
-16.4907 -10.7767 -0.450038 0 0 255
-15.7649 -11.4544 -0.431571 0 0 255
-15.7826 -11.4511 -0.42372 0 0 255
-16.5262 -10.7538 -0.408179 0 0 255
-15.8108 -11.4441 -0.413739 0 0 255
-16.0862 -11.1569 -0.32708 0 0 255
-16.0772 -11.1633 -0.308179 0 0 255
-19.7122 -10.5242 -0.311556 0 0 255
-16.3104 -10.9545 -0.23566 0 0 255
-16.148 -11.1355 -0.220682 0 0 255
-16.2917 -10.9521 -0.207506 0 0 255
-17.0414 -10.8712 -0.219057 0 0 255
-20.3596 -10.3257 -0.260298 0 0 255
-19.8754 -10.4662 -0.255901 0 0 255
-18.2639 -10.6814 -0.112617 0 0 255
-18.6092 -10.3754 -0.061294 0 0 255
-20.6683 -10.2104 -0.055679 0 0 255
-19.6943 -10.5208 0.057877 0 0 255
-19.3591 -10.6216 0.094182 0 0 255
-19.8113 -10.5021 0.150354 0 0 255
-18.1663 -10.2055 0.333297 0 0 255
-17.8236 -10.3097 0.36418 0 0 255
-17.1856 -10.5071 0.354227 0 0 255
-18.3466 -10.1332 0.381662 0 0 255
-16.5464 -10.7076 0.370094 0 0 255
-20.7397 -10.1818 0.456125 0 0 255
-15.9251 -10.902 0.37096 0 0 255
-19.786 -10.5012 0.470473 0 0 255
-17.3002 -10.4771 0.433566 0 0 255
-18.6639 -10.0344 0.465762 0 0 255
-18.5536 -10.0769 0.50064 0 0 255
-16.0687 -10.8573 0.482406 0 0 255
-16.6912 -10.6655 0.504554 0 0 255
-16.7065 -10.6656 0.51623 0 0 255
-16.064 -10.861 0.50301 0 0 255
-16.2543 -10.8011 0.51854 0 0 255
-16.1415 -10.829 0.516431 0 0 255
-16.9196 -10.5903 0.571442 0 0 255
-19.8347 -10.4729 0.672508 0 0 255
-19.9133 -10.4349 0.801478 0 0 255
-20.547 -10.2342 0.905868 0 0 255
-20.5563 -10.2388 0.922917 0 0 255
-20.2513 -10.316 1.19106 0 0 255
-20.7061 -10.1789 1.21702 0 0 255
-20.1565 -10.374 1.22425 0 0 255
-16.354 -8.94094 0.935558 0 0 255
-16.3756 -8.93898 1.06077 0 0 255
-16.3987 -8.92517 1.06552 0 0 255
-16.4553 -8.91137 1.07457 0 0 255
-16.7724 -8.80882 1.13862 0 0 255
-16.6816 -8.83702 1.15247 0 0 255
-16.3855 -8.93174 1.14376 0 0 255
-16.034 -9.04169 1.1421 0 0 255
-16.0601 -9.0291 1.14599 0 0 255
-15.9359 -9.07222 1.14014 0 0 255
-16.7787 -8.80954 1.24383 0 0 255
-16.4487 -8.91246 1.24356 0 0 255
-16.4792 -8.90197 1.27505 0 0 255
-16.4615 -8.9098 1.27418 0 0 255
-16.3856 -8.93393 1.27678 0 0 255
-16.3602 -8.93799 1.27545 0 0 255
-16.0442 -9.03543 1.26022 0 0 255
-16.4021 -8.93009 1.29283 0 0 255
-19.2869 -9.22767 1.655 0 0 255
-16.4415 -8.7998 1.66257 0 0 255
-14.6503 -12.1137 -3.28507 0 0 255
-15.7731 -11.7636 -3.42921 0 0 255
-14.6885 -12.0924 -3.12139 0 0 255
-16.2872 -10.8605 -2.99119 0 0 255
-15.1556 -11.9492 -3.06001 0 0 255
-16.967 -10.6081 -2.99799 0 0 255
-15.3267 -11.8936 -2.91772 0 0 255
-15.2205 -11.9455 -2.88864 0 0 255
-19.0395 -10.7537 -3.216 0 0 255
-16.4574 -10.8912 -2.5647 0 0 255
-18.5355 -10.922 -2.89885 0 0 255
-20.3297 -10.3261 -2.89944 0 0 255
-15.9457 -10.9651 -2.19313 0 0 255
-17.0803 -10.621 -2.21354 0 0 255
-19.0519 -10.7422 -2.50201 0 0 255
-15.0663 -11.9713 -2.10701 0 0 255
-19.6005 -10.5741 -2.50904 0 0 255
-19.5138 -10.5949 -2.49678 0 0 255
-20.3076 -10.3485 -2.49231 0 0 255
-20.6403 -10.227 -2.49874 0 0 255
-16.8173 -10.9164 -1.98849 0 0 255
-16.4124 -11.048 -1.94908 0 0 255
-16.4313 -11.0448 -1.93488 0 0 255
-16.7839 -10.9349 -1.95248 0 0 255
-20.1424 -10.3728 -2.26847 0 0 255
-19.1071 -10.7267 -2.1733 0 0 255
-15.1981 -11.9487 -1.86885 0 0 255
-18.6304 -10.8713 -2.10973 0 0 255
-16.532 -11.0108 -1.8444 0 0 255
-20.2418 -10.3484 -2.16408 0 0 255
-18.5245 -10.9097 -1.91301 0 0 255
-18.4348 -10.942 -1.84103 0 0 255
-19.9987 -10.4186 -1.89602 0 0 255
-20.6048 -10.2519 -1.85497 0 0 255
-18.8292 -10.8034 -1.60992 0 0 255
-18.6166 -10.868 -1.58334 0 0 255
-18.0632 -10.7025 -1.2358 0 0 255
-18.8576 -10.8058 -1.3046 0 0 255
-18.9729 -10.7453 -1.29311 0 0 255
-19.4229 -10.6214 -1.29037 0 0 255
-20.5655 -10.2435 -1.28931 0 0 255
-17.7323 -10.8571 -0.96366 0 0 255
-19.9701 -10.4551 -1.01078 0 0 255
-16.0233 -11.1703 -0.733568 0 0 255
-19.6888 -10.5524 -0.886024 0 0 255
-17.2956 -10.7837 -0.744063 0 0 255
-18.0426 -10.7571 -0.775696 0 0 255
-17.1664 -10.8199 -0.719974 0 0 255
-17.8733 -10.7897 -0.615711 0 0 255
-16.5106 -10.7606 -0.392202 0 0 255
-16.4332 -10.7753 -0.259353 0 0 255
-17.7346 -10.8575 -0.206515 0 0 255
-16.6681 -10.8045 -0.185468 0 0 255
-16.2587 -10.9918 -0.15706 0 0 255
-19.4351 -10.6192 -0.094884 0 0 255
-18.4689 -10.4117 -0.074809 0 0 255
-16.2941 -11.0548 -0.052834 0 0 255
-19.7842 -10.4951 -0.02545 0 0 255
-19.8514 -10.4685 -0.010075 0 0 255
-19.4187 -10.6083 0.122618 0 0 255
-19.9697 -10.4288 0.209662 0 0 255
-20.2842 -10.3149 0.285546 0 0 255
-18.6872 -10.0332 0.324222 0 0 255
-18.3506 -10.1443 0.416667 0 0 255
-17.7816 -10.3235 0.407635 0 0 255
-19.8597 -10.4638 0.461476 0 0 255
-17.1611 -10.5228 0.404767 0 0 255
-20.3024 -10.3322 0.479829 0 0 255
-18.6779 -10.0342 0.488416 0 0 255
-16.5093 -10.7314 0.497783 0 0 255
-18.1545 -10.1957 0.570971 0 0 255
-19.8764 -10.4493 0.667897 0 0 255
-16.9424 -10.4679 0.654757 0 0 255
-20.5284 -10.2375 0.883445 0 0 255
-20.0299 -10.3962 0.917919 0 0 255
-20.6644 -10.208 0.953608 0 0 255
-20.6206 -10.2163 0.954696 0 0 255
-20.1018 -10.3868 0.946207 0 0 255
-19.9213 -10.447 1.23539 0 0 255
-19.8362 -10.4659 1.2478 0 0 255
-15.7163 -9.14294 0.950968 0 0 255
-16.1609 -8.99905 1.15804 0 0 255
-15.2468 -11.917 -3.24592 0 0 255
-16.5716 -10.7664 -2.9946 0 0 255
-16.7951 -10.6985 -3.00968 0 0 255
-16.8367 -10.6921 -3.00252 0 0 255
-15.9963 -10.8293 -2.7868 0 0 255
-15.0495 -11.9884 -2.87757 0 0 255
-18.5207 -10.8913 -3.25515 0 0 255
-20.1706 -10.4169 -3.21517 0 0 255
-20.671 -10.221 -3.20611 0 0 255
-18.3944 -10.9489 -2.93541 0 0 255
-18.3684 -10.9639 -2.9067 0 0 255
-18.7692 -10.8382 -2.88948 0 0 255
-16.0001 -10.9587 -2.17884 0 0 255
-20.2508 -10.3655 -2.66044 0 0 255
-18.7121 -10.8537 -2.51793 0 0 255
-20.1937 -10.3798 -2.53242 0 0 255
-20.6153 -10.2409 -2.52806 0 0 255
-16.6713 -10.9643 -1.84732 0 0 255
-19.6681 -10.5363 -1.64476 0 0 255
-19.0668 -10.722 -1.60892 0 0 255
-18.795 -10.8288 -1.5928 0 0 255
-18.8501 -10.7893 -1.33874 0 0 255
-18.8982 -10.7918 -1.31417 0 0 255
-19.9407 -10.4531 -1.27146 0 0 255
-16.1072 -11.1181 -1.03863 0 0 255
-17.0917 -10.8148 -1.03395 0 0 255
-20.6692 -10.212 -1.11123 0 0 255
-20.5157 -10.2785 -1.01565 0 0 255
-16.0004 -11.1803 -0.573474 0 0 255
-16.2536 -10.9612 -0.209824 0 0 255
-17.1438 -10.8306 -0.211024 0 0 255
-15.9994 -11.1851 -0.054369 0 0 255
-16.0338 -11.1859 -0.035106 0 0 255
-20.0609 -10.4015 0.006338 0 0 255
-20.4409 -10.2861 0.090397 0 0 255
-19.4172 -10.6142 0.108434 0 0 255
-17.0622 -10.6729 0.260816 0 0 255
-16.5849 -10.7006 0.36251 0 0 255
-18.171 -10.192 0.393173 0 0 255
-18.6799 -10.0351 0.489624 0 0 255
-17.436 -10.4248 0.475283 0 0 255
-18.3735 -10.131 0.633375 0 0 255
-20.0597 -10.4061 0.922929 0 0 255
-20.3642 -10.3054 0.959143 0 0 255
-16.5868 -8.87515 0.935847 0 0 255
-16.4203 -8.91867 1.2765 0 0 255
-16.8559 -8.72251 1.37198 0 0 255
-16.5057 -10.7995 -2.97187 0 0 255
-15.1861 -11.9539 -2.91237 0 0 255
-18.5129 -10.9131 -3.23589 0 0 255
-18.3117 -10.9986 -2.89993 0 0 255
-14.9584 -12.0043 -2.51786 0 0 255
-15.928 -10.9734 -2.26046 0 0 255
-15.8482 -10.9959 -2.24658 0 0 255
-15.9822 -11.0043 -2.1095 0 0 255
-16.0394 -10.9702 -2.09919 0 0 255
-20.3195 -10.3527 -2.41003 0 0 255
-17.8029 -10.5652 -2.08938 0 0 255
-19.3659 -10.6393 -2.20403 0 0 255
-19.3851 -10.6307 -1.30963 0 0 255
-16.7452 -10.9693 -1.1251 0 0 255
-15.9566 -11.1867 -0.986781 0 0 255
-17.8525 -10.8156 -0.809072 0 0 255
-17.1755 -10.8397 -0.464989 0 0 255
-16.3896 -10.8238 -0.276747 0 0 255
-16.9951 -10.8838 -0.182493 0 0 255
-17.6377 -10.8849 -0.09919 0 0 255
-19.8019 -10.4934 -0.045883 0 0 255
-20.6379 -10.2137 0.147863 0 0 255
-20.1928 -10.3569 0.168965 0 0 255
-16.1245 -10.8437 0.335168 0 0 255
-16.3389 -10.7716 0.37891 0 0 255
-19.8116 -10.4911 0.466776 0 0 255
-16.093 -10.8549 0.518972 0 0 255
-20.2829 -10.3223 0.692557 0 0 255
-17.1398 -10.4436 -2.94994 0 0 255
-20.0879 -10.4136 -3.24741 0 0 255
-16.0168 -10.9391 -2.2648 0 0 255
-17.0333 -10.635 -2.27501 0 0 255
-20.3924 -10.3123 -2.45518 0 0 255
-16.3392 -11.0531 -1.92822 0 0 255
-16.8394 -10.9071 -1.94362 0 0 255
-16.8855 -10.9007 -1.93079 0 0 255
-16.6004 -10.9862 -1.11591 0 0 255
-15.5928 -11.5149 -0.836015 0 0 255
-18.2415 -10.1816 0.384365 0 0 255
-20.3963 -10.2893 0.931215 0 0 255
-20.4585 -10.2651 1.19376 0 0 255
-16.1956 -10.9389 -2.25964 0 0 255
-16.5578 -11.0128 -1.89757 0 0 255
-15.3509 -11.4454 -1.49449 0 0 255
-17.8353 -10.644 -1.51929 0 0 255
-15.5343 -11.5126 -1.35135 0 0 255
-16.7039 -11.0033 -1.25425 0 0 255
-17.4465 -10.55 0.289249 0 0 255
-18.2195 -10.1703 0.316482 0 0 255
-16.4787 -10.7225 0.316826 0 0 255
-18.3322 -10.1489 0.406866 0 0 255
-18.5638 -10.0727 0.444656 0 0 255
-15.9151 -11.0467 -2.53289 0 0 255
-18.8306 -10.8302 -2.90468 0 0 255
-15.0866 -11.437 -2.28966 0 0 255
-16.9054 -10.7079 -2.18946 0 0 255
-16.6024 -10.8965 -0.821115 0 0 255
-19.5072 -10.5788 -0.605979 0 0 255
-19.4943 -10.5844 -0.315698 0 0 255
-18.0725 -10.2276 0.444532 0 0 255
-16.4224 -8.91663 1.14947 0 0 255
-16.5794 -11.0075 -1.3221 0 0 255
-16.3294 -10.9754 -0.145727 0 0 255
-17.3675 -10.6783 -2.17634 0 0 255
-17.6652 -10.7978 -1.33336 0 0 255
-15.6187 -11.4882 -0.516159 0 0 255
-18.6799 -10.3813 -0.683381 0 0 255
-16.2912 -10.9515 -0.09346 0 0 255
-17.1035 -10.663 -2.14407 0 0 255
-16.2311 -11.0574 -1.60243 0 0 255
-16.6256 -11.0286 -1.61345 0 0 255
-15.6155 -11.4944 -1.2426 0 0 255
-16.0783 -11.15 -1.24458 0 0 255
-17.0259 -11.0297 -0.854063 0 0 255
-16.2549 -10.892 -2.1898 0 0 255
-16.6602 -10.7171 -0.356223 0 0 255
-15.4521 -11.634 -1.6523 0 0 255
-20.4729 -10.2929 -2.7749 0 0 255
-20.1738 -10.3854 -2.66085 0 0 255
-20.354 -10.3443 -2.17784 0 0 255
-19.3585 -10.6474 -3.11849 0 0 255
-19.5608 -10.588 -2.84708 0 0 255
-19.3285 -10.6253 -2.87983 0 0 255
-18.9833 -10.7687 -3.23695 0 0 255
-19.2258 -10.7012 -2.88803 0 0 255
-20.0725 -10.3903 -1.77064 0 0 255
-18.9452 -10.7798 -2.82299 0 0 255
-20.4151 -10.2833 -1.11962 0 0 255
-18.7873 -10.8273 -2.8756 0 0 255
-18.4707 -10.9176 -3.19471 0 0 255
-18.5741 -10.9103 -2.85048 0 0 255
-20.0946 -10.4088 -0.983231 0 0 255
-18.5624 -10.903 -2.53933 0 0 255
-19.1393 -10.7143 -1.89772 0 0 255
-18.5403 -10.9095 -2.55314 0 0 255
-18.5429 -10.907 -2.53444 0 0 255
-20.2765 -10.3497 -0.642043 0 0 255
-18.9572 -10.7657 -2.01117 0 0 255
-18.464 -10.9281 -2.53948 0 0 255
-17.217 -10.4573 -2.77771 0 0 255
-18.9393 -10.7782 -1.90435 0 0 255
-20.6006 -10.2285 -0.026968 0 0 255
-20.2911 -10.3302 -0.014475 0 0 255
-16.726 -10.7244 -2.98934 0 0 255
-19.8282 -10.4906 -0.363328 0 0 255
-20.2336 -10.3283 0.242258 0 0 255
-20.0232 -10.4076 0.225882 0 0 255
-19.5032 -10.5772 -0.249071 0 0 255
-19.9862 -10.4422 0.27776 0 0 255
-17.7159 -10.8117 -1.82747 0 0 255
-19.4484 -10.6001 -0.186153 0 0 255
-17.7447 -10.7961 -1.6321 0 0 255
-20.5892 -10.2325 1.20289 0 0 255
-17.9844 -10.729 -1.31614 0 0 255
-17.9685 -10.7312 -1.32714 0 0 255
-15.8548 -10.8417 -2.92877 0 0 255
-17.7761 -10.7878 -1.3775 0 0 255
-18.3662 -10.6083 -0.472529 0 0 255
-19.9954 -10.4087 1.05819 0 0 255
-18.1938 -10.6729 -0.636723 0 0 255
-18.5762 -10.0625 0.32929 0 0 255
-18.5532 -10.0741 0.497928 0 0 255
-15.8124 -11.7648 -3.45862 0 0 255
-18.3203 -10.1456 0.375608 0 0 255
-16.0637 -10.9364 -2.22828 0 0 255
-17.7961 -10.7171 -0.461519 0 0 255
-18.1801 -10.1906 0.497522 0 0 255
-18.1839 -10.1923 0.517811 0 0 255
-16.6821 -10.9553 -1.28311 0 0 255
-16.5797 -10.9601 -1.33452 0 0 255
-15.3177 -11.9089 -3.3235 0 0 255
-17.93 -10.2762 0.504177 0 0 255
-16.8266 -10.9217 -1.04805 0 0 255
-17.5618 -10.9032 -0.400933 0 0 255
-17.7018 -10.3477 0.374973 0 0 255
-16.6157 -10.9316 -1.02815 0 0 255
-16.7794 -8.80787 1.2429 0 0 255
-16.597 -11.0371 -1.01089 0 0 255
-16.4433 -8.91283 0.971019 0 0 255
-17.3321 -10.4554 0.32932 0 0 255
-16.558 -10.8891 -0.698033 0 0 255
-16.5372 -10.9002 -0.704054 0 0 255
-15.0332 -11.9884 -3.00338 0 0 255
-17.028 -10.8703 -0.188178 0 0 255
-14.9981 -12.0011 -2.99713 0 0 255
-15.1981 -11.9444 -2.75396 0 0 255
-17.3154 -10.4716 0.501607 0 0 255
-17.0991 -10.539 0.385603 0 0 255
-17.0848 -10.5425 0.374467 0 0 255
-14.786 -12.0774 -2.99363 0 0 255
-15.7101 -11.4343 -1.48352 0 0 255
-14.7753 -12.095 -2.9081 0 0 255
-14.5712 -12.1275 -3.12515 0 0 255
-16.4378 -10.8011 -0.2619 0 0 255
-14.7616 -12.0996 -2.8999 0 0 255
-15.5531 -11.4801 -1.56405 0 0 255
-16.955 -10.5793 0.504421 0 0 255
-14.9827 -12.0001 -2.5033 0 0 255
-14.9658 -12.0027 -2.48231 0 0 255
-16.4551 -8.79333 1.67113 0 0 255
-15.5528 -11.4868 -1.3928 0 0 255
-15.9191 -11.2089 -0.72116 0 0 255
-15.5148 -11.5306 -0.89943 0 0 255
-15.92 -11.2127 -0.201865 0 0 255
-15.5754 -11.4354 -0.525106 0 0 255
-16.0772 -10.8581 0.513991 0 0 255
-20.4265 -10.2936 -2.77396 0 0 255
-20.765 -10.1816 -2.28717 0 0 255
-20.158 -10.4029 -2.88141 0 0 255
-19.7599 -10.5073 -3.11984 0 0 255
-20.389 -10.3076 -2.25072 0 0 255
-20.3806 -10.3078 -1.89562 0 0 255
-19.4378 -10.6236 -2.86029 0 0 255
-19.6169 -10.5854 -2.57729 0 0 255
-20.3922 -10.2968 -1.5879 0 0 255
-19.5153 -10.5867 -2.49445 0 0 255
-20.5881 -10.2314 -1.09593 0 0 255
-20.5365 -10.2672 -1.07757 0 0 255
-19.7958 -10.4971 -1.78576 0 0 255
-19.2047 -10.6859 -2.37452 0 0 255
-18.3815 -10.9195 -3.22982 0 0 255
-18.5468 -10.8997 -3.03407 0 0 255
-18.5393 -10.9223 -2.90085 0 0 255
-18.551 -10.9064 -2.83204 0 0 255
-18.3795 -10.9424 -2.97398 0 0 255
-19.1231 -10.7243 -2.14678 0 0 255
-19.11 -10.7233 -2.02556 0 0 255
-18.2064 -11.0115 -2.9174 0 0 255
-18.1907 -11.0197 -2.9064 0 0 255
-19.3364 -10.6518 -1.62151 0 0 255
-16.7612 -10.7083 -3.01365 0 0 255
-20.5627 -10.2353 0.464145 0 0 255
-20.1479 -10.3733 0.007651 0 0 255
-19.4256 -10.6166 -0.776494 0 0 255
-20.2555 -10.3288 0.254768 0 0 255
-20.0049 -10.4207 0.020333 0 0 255
-20.0357 -10.397 0.158003 0 0 255
-20.6729 -10.2052 0.871456 0 0 255
-20.6541 -10.2161 0.85279 0 0 255
-20.0568 -10.3896 0.225782 0 0 255
-17.1758 -10.6265 -2.18689 0 0 255
-17.1017 -10.6084 -2.21842 0 0 255
-16.3101 -10.8483 -3.00651 0 0 255
-16.3144 -10.847 -2.98679 0 0 255
-20.6229 -10.2141 0.952337 0 0 255
-20.506 -10.2533 0.912013 0 0 255
-19.9615 -10.441 0.301689 0 0 255
-20.4765 -10.2537 0.922363 0 0 255
-19.7777 -10.4961 0.466531 0 0 255
-20.0358 -10.3967 0.917244 0 0 255
-19.7841 -10.4745 0.663288 0 0 255
-19.9915 -10.4143 0.915725 0 0 255
-19.6651 -10.542 0.66059 0 0 255
-19.9022 -10.4561 0.935281 0 0 255
-17.703 -10.8586 -0.79587 0 0 255
-18.2489 -10.6878 -0.094049 0 0 255
-15.9572 -10.9534 -2.22755 0 0 255
-18.1181 -10.7399 -0.083902 0 0 255
-17.0173 -10.865 -0.996918 0 0 255
-17.2301 -10.8026 -0.743794 0 0 255
-17.8182 -10.3122 0.364831 0 0 255
-17.0628 -10.8539 -0.745569 0 0 255
-16.8574 -10.9007 -0.959231 0 0 255
-16.8036 -8.79863 1.15637 0 0 255
-16.6151 -10.9551 -1.03826 0 0 255
-17.1127 -10.846 -0.446938 0 0 255
-16.8038 -8.80155 1.27228 0 0 255
-16.6703 -8.83597 1.13948 0 0 255
-16.4757 -8.90779 0.93905 0 0 255
-15.1561 -11.9456 -3.06009 0 0 255
-15.1571 -11.9521 -3.04443 0 0 255
-15.2134 -11.938 -2.87014 0 0 255
-15.2019 -11.941 -2.76976 0 0 255
-16.397 -8.925 1.06465 0 0 255
-16.6237 -11.0198 -0.612116 0 0 255
-14.973 -12.0137 -2.91118 0 0 255
-16.4477 -8.91233 1.24208 0 0 255
-16.5873 -11.0855 -0.565575 0 0 255
-16.5451 -11.1193 -0.621166 0 0 255
-15.5673 -11.4764 -1.82041 0 0 255
-16.665 -10.8036 -0.201014 0 0 255
-16.6204 -10.8142 -0.214572 0 0 255
-15.0302 -11.9948 -2.55557 0 0 255
-16.0792 -11.1609 -0.822645 0 0 255
-16.9462 -10.5875 0.517907 0 0 255
-16.0548 -11.1484 -0.761558 0 0 255
-14.9395 -12.0216 -2.53573 0 0 255
-16.0657 -9.02979 1.08593 0 0 255
-16.027 -11.1678 -0.757316 0 0 255
-16.8329 -10.6105 0.491407 0 0 255
-16.1954 -11.1208 -0.477877 0 0 255
-16.0392 -9.03914 1.16189 0 0 255
-15.3153 -11.9055 -1.88242 0 0 255
-15.908 -11.2102 -0.710023 0 0 255
-15.9496 -9.06668 1.14072 0 0 255
-16.5534 -10.7106 0.367288 0 0 255
-15.8492 -9.09756 1.14522 0 0 255
-15.4863 -11.4569 -1.11931 0 0 255
-14.9739 -12.0067 -2.04969 0 0 255
-16.0785 -11.1662 -0.307361 0 0 255
-15.1253 -11.97 -1.85998 0 0 255
-15.8403 -9.1026 1.15507 0 0 255
-15.0718 -11.976 -1.88491 0 0 255
-16.0623 -11.1576 -0.241158 0 0 255
-16.0767 -11.163 -0.178317 0 0 255
-15.9095 -11.2152 -0.190583 0 0 255
-15.8205 -11.4463 -0.392961 0 0 255
-15.8676 -10.9236 0.405472 0 0 255
-20.6055 -10.2472 -1.85022 0 0 255
-19.4457 -10.6254 -2.88564 0 0 255
-19.6372 -10.5627 -2.57547 0 0 255
-20.0021 -10.4243 -1.89918 0 0 255
-20.4302 -10.2944 -1.28813 0 0 255
-19.1056 -10.7369 -2.15272 0 0 255
-19.2498 -10.6605 -1.32858 0 0 255
-17.2232 -10.6016 -2.35948 0 0 255
-18.5513 -10.1901 -0.862983 0 0 255
-17.3025 -10.5835 -2.21023 0 0 255
-17.2385 -10.5685 -2.20285 0 0 255
-18.5553 -10.2304 -0.81009 0 0 255
-20.208 -10.3455 0.319791 0 0 255
-17.1479 -10.6249 -2.17162 0 0 255
-20.6452 -10.1938 0.961135 0 0 255
-20.5056 -10.2612 0.850813 0 0 255
-19.6705 -10.54 -0.066607 0 0 255
-19.2972 -10.646 -0.395521 0 0 255
-17.8287 -10.6484 -1.50944 0 0 255
-19.423 -10.6036 -0.253254 0 0 255
-19.2825 -10.6529 -0.291446 0 0 255
-18.0626 -10.7019 -1.23801 0 0 255
-20.2892 -10.3259 0.955786 0 0 255
-17.7329 -10.8029 -1.4181 0 0 255
-19.3386 -10.6129 0.083739 0 0 255
-19.9129 -10.4559 0.916974 0 0 255
-18.6628 -10.0323 0.456374 0 0 255
-17.9951 -10.7757 -0.809793 0 0 255
-16.9611 -10.8788 -1.69705 0 0 255
-17.8922 -10.7687 -0.597263 0 0 255
-15.7792 -11.7617 -3.33713 0 0 255
-15.7495 -11.7675 -3.34726 0 0 255
-16.033 -10.9621 -2.17856 0 0 255
-15.8075 -10.987 -2.28877 0 0 255
-17.8826 -10.8052 -0.205765 0 0 255
-17.2203 -10.7988 -0.603578 0 0 255
-17.1615 -10.8149 -0.250036 0 0 255
-15.478 -11.8504 -2.68205 0 0 255
-15.242 -11.9446 -2.82798 0 0 255
-16.4935 -10.7815 -0.451764 0 0 255
-14.7533 -12.0797 -3.14333 0 0 255
-15.9818 -11.1777 -0.994936 0 0 255
-16.9394 -10.4665 0.653714 0 0 255
-16.2787 -10.9557 -0.228829 0 0 255
-16.5353 -10.7059 0.316923 0 0 255
-15.0988 -11.9694 -1.86027 0 0 255
-16.1571 -8.90765 1.66054 0 0 255
-15.7941 -11.4496 -0.680727 0 0 255
-15.8272 -11.4446 -0.631492 0 0 255
-16.0374 -11.1838 -0.038052 0 0 255
-16.2568 -10.7992 0.518314 0 0 255
-16.0549 -10.9843 0.279496 0 0 255
-15.6365 -11.4947 -0.448063 0 0 255
-20.6875 -10.2294 -3.21041 0 0 255
-20.2325 -10.3502 -2.68772 0 0 255
-20.1569 -10.3806 -2.7702 0 0 255
-19.9706 -10.4479 -2.60613 0 0 255
-19.4799 -10.6155 -2.87191 0 0 255
-18.9326 -10.7666 -2.87552 0 0 255
-18.3693 -10.9567 -2.90709 0 0 255
-18.3045 -10.9885 -2.90059 0 0 255
-18.2822 -11.0032 -2.926 0 0 255
-18.8563 -10.8105 -2.1898 0 0 255
-16.8374 -10.6953 -3.00772 0 0 255
-17.8812 -10.5339 -2.05185 0 0 255
-17.189 -10.594 -2.23689 0 0 255
-17.1974 -10.6024 -2.19543 0 0 255
-20.1806 -10.3529 0.32706 0 0 255
-18.8147 -10.7969 -1.13467 0 0 255
-17.0824 -10.6158 -2.21246 0 0 255
-17.0985 -10.619 -2.18596 0 0 255
-17.118 -10.6269 -2.16369 0 0 255
-16.8932 -10.6818 -2.29782 0 0 255
-19.2679 -10.6543 -0.378371 0 0 255
-19.2234 -10.6714 -0.268632 0 0 255
-20.14 -10.3798 0.920292 0 0 255
-19.7466 -10.5194 0.461124 0 0 255
-19.4071 -10.6154 0.106262 0 0 255
-19.8758 -10.452 0.665029 0 0 255
-19.9135 -10.4392 0.794743 0 0 255
-19.9433 -10.4348 0.915506 0 0 255
-18.7072 -10.2972 0.076854 0 0 255
-19.8268 -10.4599 1.24451 0 0 255
-17.8035 -10.7937 -0.605645 0 0 255
-16.9099 -10.763 -1.2961 0 0 255
-16.7504 -10.9892 -1.64077 0 0 255
-16.6517 -10.9821 -1.69249 0 0 255
-15.9417 -10.964 -2.24077 0 0 255
-16.016 -10.9697 -2.16269 0 0 255
-15.8804 -11.0012 -2.19452 0 0 255
-17.3249 -10.7748 -0.467402 0 0 255
-17.1114 -10.8307 -0.078272 0 0 255
-16.4412 -8.91123 1.1311 0 0 255
-16.1685 -11.1248 -0.997928 0 0 255
-16.4 -10.8552 -0.309668 0 0 255
-16.0989 -11.1463 -0.601423 0 0 255
-16.2757 -10.9432 -0.190183 0 0 255
-16.4706 -10.7268 0.352292 0 0 255
-15.1671 -11.9625 -1.88774 0 0 255
-15.9126 -11.2105 -0.485621 0 0 255
-16.4376 -10.623 0.687953 0 0 255
-15.6099 -11.4727 -0.56379 0 0 255
-15.6136 -11.4818 -0.419521 0 0 255
-15.9078 -10.9128 0.407439 0 0 255
-19.4882 -10.6074 -2.59869 0 0 255
-19.9359 -10.4602 -1.86875 0 0 255
-18.5059 -10.8907 -3.06183 0 0 255
-18.5889 -10.9017 -2.89514 0 0 255
-19.9089 -10.4567 -1.30223 0 0 255
-17.1368 -10.4541 -2.95936 0 0 255
-19.4507 -10.607 -1.03738 0 0 255
-18.1074 -11.0319 -2.48658 0 0 255
-20.2447 -10.3472 0.05998 0 0 255
-19.4419 -10.6208 -0.735103 0 0 255
-20.0202 -10.4285 -0.041483 0 0 255
-19.3786 -10.611 -0.685556 0 0 255
-18.8491 -10.7841 -1.24634 0 0 255
-18.552 -10.885 -1.55215 0 0 255
-20.4637 -10.2689 0.909877 0 0 255
-19.2902 -10.6489 -0.328019 0 0 255
-17.2106 -10.789 -1.00979 0 0 255
-15.9242 -10.9813 -2.26406 0 0 255
-16.3168 -11.0664 -1.91603 0 0 255
-16.3503 -11.0667 -1.88323 0 0 255
-15.6847 -11.2841 -2.27943 0 0 255
-17.1227 -10.8347 -0.571595 0 0 255
-17.0827 -10.8499 -0.447696 0 0 255
-17.1595 -10.8264 -0.318406 0 0 255
-17.0872 -10.8541 -0.404721 0 0 255
-17.3345 -10.4636 0.521615 0 0 255
-16.6809 -10.8037 -0.225465 0 0 255
-16.0359 -11.1421 -1.03295 0 0 255
-16.4879 -10.713 -0.228032 0 0 255
-14.9584 -12.0085 -2.4529 0 0 255
-16.2066 -11.1196 -0.460313 0 0 255
-16.0417 -11.1658 -0.591504 0 0 255
-15.962 -11.2005 -0.410041 0 0 255
-16.0343 -10.8664 0.340531 0 0 255
-15.7783 -11.4437 -0.166131 0 0 255
-20.4764 -10.278 -1.81973 0 0 255
-18.7938 -10.7913 -2.37369 0 0 255
-17.8522 -10.556 -2.08694 0 0 255
-17.1433 -10.5935 -2.27438 0 0 255
-17.8708 -10.6138 -1.55907 0 0 255
-17.8088 -10.7632 -1.41812 0 0 255
-18.5653 -10.0654 0.361089 0 0 255
-16.5062 -11.047 -1.68049 0 0 255
-15.1437 -11.9601 -3.24495 0 0 255
-16.525 -10.9592 -0.785019 0 0 255
-14.9988 -11.9972 -2.86244 0 0 255
-16.5287 -11.146 -0.556683 0 0 255
-16.2284 -11.0182 -0.236609 0 0 255
-17.3091 -10.5814 -2.28161 0 0 255
-17.6917 -10.6678 -2.02784 0 0 255
-17.2346 -10.578 -2.24783 0 0 255
-17.832 -10.6407 -1.54063 0 0 255
-17.8144 -10.783 -0.578629 0 0 255
-16.0559 -11.1656 -0.125666 0 0 255
-16.4632 -10.766 -3.01011 0 0 255
-17.7438 -10.7385 -1.8881 0 0 255
-17.8878 -10.6339 -1.47546 0 0 255
-18.1821 -10.72 -0.208509 0 0 255
-17.8398 -10.3213 0.322338 0 0 255
-16.6762 -10.9959 -1.11832 0 0 255
-15.7838 -11.4613 -0.650977 0 0 255
-16.5479 -11.0134 -1.77012 0 0 255
-19.9374 -10.4541 -1.75497 0 0 255
-16.7005 -11.0225 -1.6121 0 0 255
-15.957 -10.9755 -1.9242 0 0 255
-16.4174 -11.1169 -0.638135 0 0 255
-18.4696 -10.596 -0.475529 0 0 255
-17.2381 -10.9072 -0.105754 0 0 255
-20.3968 -10.3007 0.841714 0 0 255
-20.0254 -10.4054 0.226277 0 0 255
-20.0256 -10.4037 0.20827 0 0 255
-20.0271 -10.4037 0.155195 0 0 255
-20.587 -10.2328 -2.38193 0 0 255
-20.1792 -10.3778 -0.998114 0 0 255
-20.3546 -10.31 -1.89241 0 0 255
-16.4576 -8.79975 1.67383 0 0 255
-19.8742 -10.4699 -0.57251 0 0 255
-16.4353 -8.8058 1.67092 0 0 255
-18.6934 -10.0292 0.338394 0 0 255
-18.5552 -10.0744 0.49931 0 0 255
-18.433 -10.1082 0.362651 0 0 255
-19.8054 -10.5057 -1.83942 0 0 255
-18.1953 -10.1882 0.504227 0 0 255
-18.188 -10.1939 0.517545 0 0 255
-19.557 -10.5809 -1.83815 0 0 255
-19.5024 -10.6028 -1.66998 0 0 255
-18.047 -10.2373 0.496612 0 0 255
-19.5669 -10.5684 -2.52279 0 0 255
-17.9313 -10.2748 0.504569 0 0 255
-19.424 -10.6389 -2.54104 0 0 255
-19.0757 -10.7281 -1.55136 0 0 255
-19.2186 -10.6923 -2.22624 0 0 255
-17.7896 -10.3182 0.389894 0 0 255
-19.227 -10.6808 -2.37519 0 0 255
-18.3525 -10.6119 -0.48663 0 0 255
-19.0448 -10.739 -2.1719 0 0 255
-19.2262 -10.701 -2.88904 0 0 255
-17.5656 -10.3892 0.516862 0 0 255
-18.8083 -10.8175 -1.86184 0 0 255
-18.1891 -10.6761 -0.65341 0 0 255
-17.3272 -10.4683 0.51424 0 0 255
-17.9664 -10.7274 -1.32747 0 0 255
-18.5623 -10.9031 -2.57075 0 0 255
-18.5435 -10.9073 -2.53633 0 0 255
-18.5437 -10.9067 -2.55824 0 0 255
-18.4691 -10.9257 -2.54271 0 0 255
-17.0853 -10.542 0.374413 0 0 255
-17.7763 -10.7875 -1.37904 0 0 255
-17.7457 -10.7943 -1.6341 0 0 255
-17.7348 -10.8013 -1.6147 0 0 255
-17.696 -10.8102 -1.83448 0 0 255
-17.1426 -10.8376 -0.046489 0 0 255
-16.8594 -10.904 -0.965599 0 0 255
-16.8486 -10.9042 -0.999913 0 0 255
-16.4925 -10.7629 -0.410578 0 0 255
-16.5942 -10.8621 -0.788688 0 0 255
-16.5361 -10.9045 -0.756519 0 0 255
-16.5589 -11.0576 -0.603111 0 0 255
-16.0674 -10.8598 0.503453 0 0 255
-16.6181 -10.9624 -1.28143 0 0 255
-16.2777 -10.9588 -0.229889 0 0 255
-16.2878 -10.9543 -0.266468 0 0 255
-16.5318 -11.0669 -0.964063 0 0 255
-16.7811 -10.7061 -2.99031 0 0 255
-15.9298 -10.8997 0.368219 0 0 255
-16.7256 -10.7245 -2.99293 0 0 255
-16.1898 -11.1303 -0.187247 0 0 255
-16.1875 -11.127 -0.210543 0 0 255
-16.3567 -10.9 -2.5528 0 0 255
-16.0149 -11.1766 -0.738776 0 0 255
-16.3422 -10.8406 -2.99062 0 0 255
-15.9355 -11.2057 -0.962736 0 0 255
-15.7612 -11.4595 -0.416224 0 0 255
-15.7133 -11.4219 -1.94058 0 0 255
-15.5547 -11.483 -1.40906 0 0 255
-15.5153 -11.4912 -1.38599 0 0 255
-15.1407 -11.964 -1.86022 0 0 255
-15.3358 -11.9084 -3.31475 0 0 255
-15.3351 -11.9047 -3.33178 0 0 255
-15.2027 -11.9406 -2.77004 0 0 255
-15.1623 -11.949 -3.08225 0 0 255
-15.0412 -12.0061 -2.5415 0 0 255
-15.0645 -11.9753 -3.09959 0 0 255
-15.0781 -11.9813 -3.25037 0 0 255
-14.8903 -12.0471 -2.87109 0 0 255
-20.4719 -10.2647 0.9262 0 0 255
-20.1651 -10.3772 1.22542 0 0 255
-20.0897 -10.3815 0.896301 0 0 255
-20.358 -10.3204 -0.26078 0 0 255
-19.9006 -10.4595 0.935795 0 0 255
-19.8954 -10.4657 0.905436 0 0 255
-20.0365 -10.3979 0.181666 0 0 255
-20.4786 -10.2714 -1.58136 0 0 255
-20.8229 -10.1653 -2.76783 0 0 255
-19.6367 -10.5488 0.646968 0 0 255
-19.7174 -10.5298 0.162709 0 0 255
-19.9575 -10.4599 -1.01296 0 0 255
-20.134 -10.4031 -2.56875 0 0 255
-19.3583 -10.6272 0.078307 0 0 255
-16.5558 -8.87479 0.950833 0 0 255
-19.3205 -10.6241 0.088293 0 0 255
-19.3276 -10.6386 0.049032 0 0 255
-16.4189 -8.92366 1.29884 0 0 255
-16.4778 -8.90663 0.937855 0 0 255
-19.6071 -10.5647 -1.32826 0 0 255
-19.2969 -10.6514 -0.368659 0 0 255
-16.3786 -8.93572 1.06347 0 0 255
-18.1305 -10.2072 0.502948 0 0 255
-18.5547 -10.1989 -0.828389 0 0 255
-19.7693 -10.5319 -2.95012 0 0 255
-19.7688 -10.5131 -3.06666 0 0 255
-18.0237 -10.2305 0.508744 0 0 255
-19.5218 -10.5839 -2.49294 0 0 255
-18.5371 -10.554 -0.352872 0 0 255
-16.0661 -9.02905 1.08443 0 0 255
-16.0391 -9.03757 1.16153 0 0 255
-16.0341 -9.04036 1.14033 0 0 255
-15.9706 -9.05883 1.17039 0 0 255
-19.0917 -10.7196 -1.89202 0 0 255
-19.2129 -10.6886 -2.37766 0 0 255
-19.3693 -10.6257 -3.17864 0 0 255
-19.3569 -10.6436 -3.11219 0 0 255
