-17.1154 -10.8063 -0.992227 0 0 255
-15.9489 -10.9582 -2.2517 0 0 255
-16.0868 -10.8557 0.463401 0 0 255
-17.8068 -10.5488 -2.06844 0 0 255
-17.8034 -10.67 -1.90557 0 0 255
-16.0915 -10.926 -2.24291 0 0 255
-16.6364 -10.9077 -0.85499 0 0 255
-14.5589 -12.1527 -3.35701 0 0 255
-18.4642 -10.4008 -0.728574 0 0 255
-17.069 -10.7278 -3.45451 0 0 255
-17.3121 -10.6175 -2.10775 0 0 255
-16.5308 -10.9507 -0.761185 0 0 255
-16.1501 -11.0962 -1.42372 0 0 255
-15.4225 -11.4224 -1.5284 0 0 255
-17.0006 -10.638 -2.1453 0 0 255
-15.9624 -10.9876 -1.92724 0 0 255
-16.554 -11.0774 -0.652886 0 0 255
-21.8188 -9.56098 1.53075 0 0 255
-17.8013 -10.6582 -2.55447 0 0 255
-17.6957 -10.6364 -2.04169 0 0 255
-17.9429 -10.5918 -1.3341 0 0 255
-15.2079 -11.912 -2.18528 0 0 255
-21.6769 -9.45506 1.52996 0 0 255
-20.9926 -9.71518 1.59942 0 0 255
-21.0055 -9.8839 1.61955 0 0 255
-16.8116 -8.80482 1.27436 0 0 255
-21.6579 -9.81583 0.26689 0 0 255
-16.3916 -8.93332 1.1441 0 0 255
-21.6792 -9.82636 -1.76914 0 0 255
-20.0605 -10.3933 0.334957 0 0 255
-21.6587 -9.84471 -2.93182 0 0 255
-18.3563 -10.1331 0.503806 0 0 255
-21.6425 -9.84564 -4.17257 0 0 255
-20.6868 -10.2226 -2.78138 0 0 255
-18.4755 -10.3108 -0.846671 0 0 255
-19.6391 -10.5539 -1.57808 0 0 255
-20.2956 -10.3414 -3.16674 0 0 255
-17.6601 -10.8646 -0.468852 0 0 255
-18.9543 -10.8075 -2.554 0 0 255
-17.0663 -10.8584 -0.221792 0 0 255
-16.4879 -10.7198 -0.385978 0 0 255
-16.9385 -10.6821 -2.19113 0 0 255
-17.9902 -11.0758 -4.03266 0 0 255
-16.3665 -11.0687 -1.57404 0 0 255
-16.0995 -11.1154 -1.04104 0 0 255
-16.3338 -11.0772 -1.61176 0 0 255
-16.5044 -10.8061 -3.00367 0 0 255
-17.69 -11.1641 -4.18679 0 0 255
-15.961 -10.955 -2.20565 0 0 255
-16.3339 -10.9483 -3.554 0 0 255
-15.5671 -11.518 -0.950914 0 0 255
-16.6658 -11.3894 -4.00392 0 0 255
-15.7835 -11.1225 -3.22599 0 0 255
-16.0846 -11.6666 -3.57476 0 0 255
-16.075 -11.6741 -3.54999 0 0 255
-16.0853 -11.6654 -3.61506 0 0 255
-15.2067 -11.931 -2.2378 0 0 255
-14.9201 -12.0228 -2.9923 0 0 255
-15.0948 -11.9784 -3.56543 0 0 255
-15.1057 -11.9762 -3.7587 0 0 255
-14.5319 -12.1537 -3.46761 0 0 255
-14.3416 -12.2158 -3.56365 0 0 255
-21.6964 -9.80766 0.346552 0 0 255
-21.677 -9.82659 0.353643 0 0 255
-21.694 -9.81353 0.112127 0 0 255
-21.6999 -9.8085 0.054905 0 0 255
-21.6737 -9.84053 -0.520393 0 0 255
-20.2187 -10.3381 -0.021447 0 0 255
-17.9306 -10.2734 0.388391 0 0 255
-20.0158 -10.5608 -1.3385 0 0 255
-19.8224 -10.4756 -1.82319 0 0 255
-19.8427 -10.4668 -1.86251 0 0 255
-19.3561 -10.6392 -3.16635 0 0 255
-17.8693 -10.807 -0.789227 0 0 255
-17.6934 -10.8628 -0.420541 0 0 255
-17.2547 -10.7992 -0.206878 0 0 255
-17.763 -10.8481 -0.791524 0 0 255
-17.1914 -10.8174 -0.20288 0 0 255
-17.0466 -10.8645 -0.195321 0 0 255
-16.1921 -10.8112 0.49289 0 0 255
-19.2172 -10.699 -4.45207 0 0 255
-16.435 -10.8195 -0.425994 0 0 255
-17.2024 -10.6072 -2.20131 0 0 255
-17.0005 -10.7628 -1.85191 0 0 255
-16.5197 -10.9221 -0.737352 0 0 255
-16.2518 -10.9704 -0.267004 0 0 255
-17.0231 -10.7648 -2.07581 0 0 255
-16.0422 -11.1611 -0.248677 0 0 255
-15.9966 -11.1843 -0.449675 0 0 255
-16.9899 -10.693 -3.53099 0 0 255
-15.8975 -11.2155 -0.465032 0 0 255
-16.0005 -11.1794 -0.753649 0 0 255
-15.7899 -11.4486 -0.457576 0 0 255
-15.9621 -10.9591 -2.1683 0 0 255
-15.8155 -10.9908 -2.23111 0 0 255
-15.4653 -11.5526 -0.796311 0 0 255
-15.7826 -11.763 -3.44201 0 0 255
-14.9731 -12.0074 -2.11336 0 0 255
-15.0156 -11.9955 -2.24288 0 0 255
-15.1174 -11.9595 -3.09833 0 0 255
-21.6545 -9.87415 -1.74535 0 0 255
-18.4103 -10.1132 0.359949 0 0 255
-17.9233 -10.2822 0.495405 0 0 255
-18.9092 -10.7777 -2.40152 0 0 255
-19.0072 -10.7489 -2.8925 0 0 255
-17.1707 -10.8287 -0.25317 0 0 255
-16.9875 -10.8531 -0.108486 0 0 255
-17.0103 -10.8557 -0.150131 0 0 255
-16.337 -10.7716 0.502774 0 0 255
-16.3174 -10.7866 0.531659 0 0 255
-19.1833 -10.7071 -4.04929 0 0 255
-18.5898 -10.9093 -2.89712 0 0 255
-16.0637 -10.9635 0.241816 0 0 255
-15.8754 -10.9245 0.411905 0 0 255
-17.0708 -10.6718 -2.08329 0 0 255
-16.5171 -10.9132 -0.716962 0 0 255
-16.8297 -10.9145 -1.62268 0 0 255
-15.9407 -10.9626 -2.23063 0 0 255
-14.7873 -12.0902 -2.90795 0 0 255
-21.0664 -9.88686 1.5764 0 0 255
-21.6993 -9.81343 0.215186 0 0 255
-20.0617 -10.396 0.243803 0 0 255
-18.4822 -10.2308 -0.850682 0 0 255
-17.0931 -10.8452 -0.491983 0 0 255
-16.2779 -10.8143 0.346614 0 0 255
-16.0492 -10.9914 0.243854 0 0 255
-16.5171 -11.0712 -0.870127 0 0 255
-16.1187 -11.14 -0.176346 0 0 255
-15.9563 -11.1934 -0.176962 0 0 255
-15.5559 -11.5202 -0.808446 0 0 255
-15.4886 -11.5365 -0.810151 0 0 255
-16.165 -11.0559 -3.28402 0 0 255
-16.6857 -11.381 -3.97077 0 0 255
-14.3247 -12.2214 -3.54156 0 0 255
-17.1152 -10.8374 -0.924202 0 0 255
-16.391 -10.9533 -0.31712 0 0 255
-17.0343 -10.776 -1.81403 0 0 255
-16.2204 -11.0983 -0.10623 0 0 255
-18.1358 -11.03 -3.93227 0 0 255
-15.2741 -11.9153 -1.64519 0 0 255
-15.177 -11.9475 -1.61705 0 0 255
-15.5546 -11.868 -2.98328 0 0 255
-15.1792 -11.9486 -3.28663 0 0 255
-20.0064 -10.4415 0.075707 0 0 255
-17.99 -10.2546 0.455263 0 0 255
-17.8081 -10.266 0.318608 0 0 255
-16.4609 -10.7729 -0.354797 0 0 255
-16.527 -11.0652 -1.43841 0 0 255
-16.3203 -11.0413 -3.49294 0 0 255
-16.2407 -11.073 -3.39111 0 0 255
-16.4665 -11.5308 -4.02546 0 0 255
-16.0923 -11.663 -3.69986 0 0 255
-17.8051 -10.7133 -1.52781 0 0 255
-16.6167 -10.8919 -0.946349 0 0 255
-16.4998 -11.0815 -0.888705 0 0 255
-17.0768 -10.6499 -1.62674 0 0 255
-15.9844 -10.8706 0.402533 0 0 255
-17.0166 -10.7668 -1.91602 0 0 255
-16.2989 -11.0436 -0.312918 0 0 255
-16.5894 -10.9267 -0.648559 0 0 255
-16.8081 -10.9405 -1.23441 0 0 255
-15.4295 -11.4217 -1.61374 0 0 255
-15.5435 -11.4171 -1.87477 0 0 255
-18.643 -10.8392 -1.90083 0 0 255
-15.7986 -11.198 -2.45234 0 0 255
-16.6806 -8.83836 1.15248 0 0 255
-16.5916 -8.85997 0.916787 0 0 255
-21.6718 -9.79661 0.066798 0 0 255
-21.6742 -9.8415 -0.522185 0 0 255
-18.0108 -10.2445 0.521298 0 0 255
-18.0474 -10.2204 0.493756 0 0 255
-17.9406 -10.275 0.520173 0 0 255
-17.9359 -10.272 0.390251 0 0 255
-17.3269 -10.4686 0.515767 0 0 255
-20.6597 -10.2388 -1.02302 0 0 255
-16.6703 -10.6736 0.435413 0 0 255
-21.6819 -9.82417 -1.77214 0 0 255
-21.6717 -9.85009 -1.75904 0 0 255
-20.195 -10.3697 -0.99748 0 0 255
-16.4744 -10.7351 0.387995 0 0 255
-20.5702 -10.2338 -1.26669 0 0 255
-20.5665 -10.2387 -1.28887 0 0 255
-16.5427 -10.7048 0.301607 0 0 255
-17.1827 -10.8214 -0.035546 0 0 255
-20.5958 -10.2316 -1.63817 0 0 255
-17.2151 -10.8109 -0.200618 0 0 255
-15.8229 -10.9361 0.364125 0 0 255
-17.1964 -10.8163 -0.208673 0 0 255
-19.5985 -10.5651 -1.3265 0 0 255
-19.8424 -10.4854 -1.83109 0 0 255
-16.5168 -10.744 -0.406307 0 0 255
-19.3981 -10.634 -1.62959 0 0 255
-17.8669 -10.8049 -0.945561 0 0 255
-16.356 -10.9425 -0.277872 0 0 255
-17.1957 -10.8117 -0.736638 0 0 255
-20.6802 -10.2195 -2.48863 0 0 255
-16.4408 -10.8219 -0.44626 0 0 255
-16.18 -11.121 -0.225455 0 0 255
-16.0956 -11.1541 -0.203749 0 0 255
-16.1162 -11.1466 -0.221407 0 0 255
-15.972 -11.2008 -0.192595 0 0 255
-15.9471 -11.2004 -0.222904 0 0 255
-16.5454 -11.0939 -0.614114 0 0 255
-16.5381 -11.1065 -0.623777 0 0 255
-20.1786 -10.3807 -2.66608 0 0 255
-19.1654 -10.7061 -2.19267 0 0 255
-15.9307 -11.204 -0.48103 0 0 255
-15.7986 -11.4501 -0.398456 0 0 255
-20.4153 -10.299 -3.20948 0 0 255
-16.0534 -11.1583 -0.74409 0 0 255
-21.6541 -9.84909 -4.15318 0 0 255
-15.9488 -11.195 -0.743596 0 0 255
-16.6679 -10.9642 -1.28218 0 0 255
-16.6678 -10.9484 -1.29657 0 0 255
-16.6271 -10.9646 -1.27752 0 0 255
-16.624 -10.9486 -1.29356 0 0 255
-16.1134 -11.1517 -0.961928 0 0 255
-19.7709 -10.5141 -3.09275 0 0 255
-18.9311 -10.7993 -2.54193 0 0 255
-15.9631 -11.1601 -1.05575 0 0 255
-18.9892 -10.7547 -2.86261 0 0 255
-19.3604 -10.6362 -3.13263 0 0 255
-17.0272 -10.666 -2.08628 0 0 255
-16.5979 -11.0604 -1.70149 0 0 255
-20.3202 -10.3488 -4.02046 0 0 255
-16.3255 -11.0736 -1.60537 0 0 255
-17.0662 -10.6503 -2.22076 0 0 255
-18.5908 -10.8837 -2.91955 0 0 255
-16.7799 -10.9328 -1.95218 0 0 255
-16.9409 -10.6655 -2.20147 0 0 255
-16.9372 -10.6614 -2.24085 0 0 255
-16.9553 -10.6495 -2.27066 0 0 255
-19.6085 -10.5713 -3.79047 0 0 255
-19.5546 -10.5825 -3.77567 0 0 255
-19.2051 -10.6895 -3.70099 0 0 255
-15.5648 -11.4992 -1.37151 0 0 255
-16.7672 -10.7735 -2.55021 0 0 255
-19.0773 -10.7465 -4.01759 0 0 255
-15.9318 -10.9907 -2.23276 0 0 255
-19.2103 -10.7037 -4.47233 0 0 255
-18.3643 -10.9542 -4.17043 0 0 255
-18.0739 -11.0443 -4.02769 0 0 255
-18.0011 -11.075 -4.04011 0 0 255
-17.9953 -11.0768 -4.0704 0 0 255
-15.134 -11.9675 -1.8806 0 0 255
-17.8335 -11.1254 -4.04867 0 0 255
-17.2195 -11.3133 -4.01052 0 0 255
-15.8078 -11.1575 -3.16268 0 0 255
-15.156 -11.9562 -2.4487 0 0 255
-16.0502 -11.6815 -3.51911 0 0 255
-15.3003 -11.9111 -2.87141 0 0 255
-16.0305 -11.6882 -3.52543 0 0 255
-15.2833 -11.9195 -2.88548 0 0 255
-15.6301 -11.8157 -3.2112 0 0 255
-16.0962 -11.6625 -3.67364 0 0 255
-15.7667 -11.7626 -3.47238 0 0 255
-15.2038 -11.9349 -3.08883 0 0 255
-16.1164 -11.6747 -4.01351 0 0 255
-15.7291 -11.7859 -3.77073 0 0 255
-15.6694 -11.803 -3.77319 0 0 255
-15.0904 -11.9812 -3.58478 0 0 255
-14.4942 -12.1744 -3.24988 0 0 255
-19.4889 -8.60218 1.63114 0 0 255
-20.9593 -9.71289 1.62748 0 0 255
-16.4664 -8.89999 1.14321 0 0 255
-16.1674 -8.9849 1.14274 0 0 255
-21.6711 -9.82231 0.307677 0 0 255
-18.3849 -10.1357 0.432006 0 0 255
-20.1909 -10.353 0.150647 0 0 255
-18.351 -10.1425 0.417492 0 0 255
-17.197 -10.4914 0.364815 0 0 255
-20.651 -10.2249 -1.08579 0 0 255
-17.2911 -10.7865 -0.183585 0 0 255
-17.1613 -10.8211 -0.246565 0 0 255
-17.6823 -10.8524 -0.526418 0 0 255
-16.6782 -10.7952 -0.21356 0 0 255
-17.2971 -10.782 -0.461833 0 0 255
-16.5958 -10.6864 -0.28079 0 0 255
-16.4036 -10.8044 -0.239028 0 0 255
-16.2729 -11.0375 -0.046105 0 0 255
-19.4808 -10.6295 -1.63273 0 0 255
-16.4829 -10.7528 -0.384635 0 0 255
-16.2381 -10.9904 -0.194247 0 0 255
-20.7494 -10.1918 -2.52275 0 0 255
-17.7573 -10.8483 -0.947156 0 0 255
-16.2347 -11.1001 -0.190257 0 0 255
-16.4486 -10.8649 -0.45607 0 0 255
-20.332 -10.3468 -2.40992 0 0 255
-17.7852 -10.7552 -1.13388 0 0 255
-16.1766 -11.1263 -0.459169 0 0 255
-20.1584 -10.3856 -2.73132 0 0 255
-15.8209 -11.4477 -0.392247 0 0 255
-20.2616 -10.3559 -3.17431 0 0 255
-15.9462 -11.2063 -0.703967 0 0 255
-15.9212 -11.2004 -0.721167 0 0 255
-19.7827 -10.5258 -2.92456 0 0 255
-15.9016 -11.2051 -0.729086 0 0 255
-15.9962 -11.1477 -1.05877 0 0 255
-18.9523 -10.7732 -2.85017 0 0 255
-17.2103 -10.6288 -2.09247 0 0 255
-17.1835 -10.6219 -2.11036 0 0 255
-17.0325 -10.698 -2.07925 0 0 255
-15.5056 -11.5354 -0.867393 0 0 255
-19.9494 -10.465 -3.76961 0 0 255
-18.6601 -10.8783 -2.88922 0 0 255
-16.3938 -11.0573 -1.62767 0 0 255
-16.9206 -10.6847 -2.30116 0 0 255
-20.3278 -10.3405 -4.36116 0 0 255
-19.2154 -10.698 -3.76815 0 0 255
-16.0768 -10.9779 -2.08784 0 0 255
-16.0578 -10.9508 -2.1608 0 0 255
-15.8935 -11.011 -2.09249 0 0 255
-15.9459 -10.9685 -2.1874 0 0 255
-15.8613 -11.108 -2.09158 0 0 255
-15.896 -10.9935 -2.24277 0 0 255
-18.9453 -10.7827 -4.33481 0 0 255
-15.2522 -11.9332 -1.58585 0 0 255
-18.4646 -10.9164 -4.28278 0 0 255
-18.147 -11.0268 -4.03975 0 0 255
-15.2009 -11.2498 -2.18126 0 0 255
-15.9251 -10.8363 -2.9543 0 0 255
-17.7457 -11.1621 -4.05074 0 0 255
-15.4158 -11.8738 -2.7084 0 0 255
-16.7822 -11.3445 -4.02566 0 0 255
-15.7787 -11.7559 -3.34148 0 0 255
-15.3572 -11.8825 -3.11849 0 0 255
-15.7992 -11.7832 -3.96911 0 0 255
-14.9642 -12.017 -3.4366 0 0 255
-14.5307 -12.1509 -3.29185 0 0 255
-14.7267 -12.0844 -3.66399 0 0 255
-14.4996 -12.1664 -3.48445 0 0 255
-14.4134 -12.1839 -3.55185 0 0 255
-14.3519 -12.214 -3.52395 0 0 255
-21.6247 -9.78633 1.56497 0 0 255
-20.6353 -10.2172 0.143124 0 0 255
-19.8465 -10.4833 -0.299552 0 0 255
-18.5583 -10.5147 -0.434292 0 0 255
-16.0996 -10.8519 0.38131 0 0 255
-15.9572 -10.895 0.372214 0 0 255
-16.9692 -10.8699 -0.152992 0 0 255
-16.6482 -10.8209 -0.181562 0 0 255
-17.7692 -10.8141 -0.634892 0 0 255
-16.3194 -10.9427 -0.239426 0 0 255
-16.2521 -10.9613 -0.211568 0 0 255
-20.325 -10.3364 -2.51464 0 0 255
-17.0815 -10.8369 -0.987467 0 0 255
-19.5352 -10.5687 -2.48736 0 0 255
-16.08 -11.1273 -1.01337 0 0 255
-15.9356 -11.1954 -0.996504 0 0 255
-16.6801 -10.9577 -1.70689 0 0 255
-18.7676 -10.8313 -2.88995 0 0 255
-18.572 -10.9008 -2.88676 0 0 255
-16.9543 -10.6557 -2.17305 0 0 255
-15.4631 -11.5583 -0.952969 0 0 255
-17.3768 -10.3906 -2.87558 0 0 255
-19.8252 -10.502 -4.22245 0 0 255
-15.8605 -11.0545 -1.95779 0 0 255
-16.5005 -10.6466 -3.22759 0 0 255
-15.1588 -11.9679 -1.85741 0 0 255
-15.1092 -11.9657 -1.88766 0 0 255
-17.6413 -11.1845 -4.1964 0 0 255
-15.0522 -11.988 -2.23682 0 0 255
-15.1063 -11.9656 -2.46295 0 0 255
-15.078 -11.9797 -2.7464 0 0 255
-16.2161 -11.6352 -3.82112 0 0 255
-15.2799 -11.9228 -3.22409 0 0 255
-14.6019 -12.1224 -3.61747 0 0 255
-16.7277 -8.73743 1.3667 0 0 255
-18.6737 -10.0403 0.572099 0 0 255
-17.4788 -10.568 0.247188 0 0 255
-17.0527 -10.8574 -0.144479 0 0 255
-17.8413 -10.8137 -1.03426 0 0 255
-17.1271 -10.8147 -0.976793 0 0 255
-15.7642 -11.4535 -0.126394 0 0 255
-15.9798 -11.1871 -0.483808 0 0 255
-17.823 -10.6557 -1.65395 0 0 255
-16.8376 -10.8306 -1.32737 0 0 255
-16.7901 -10.9895 -1.22484 0 0 255
-17.7979 -10.6489 -1.90663 0 0 255
-15.9947 -11.16 -1.00852 0 0 255
-15.5956 -11.5078 -0.793183 0 0 255
-15.838 -11.4189 -0.972471 0 0 255
-17.04 -10.6805 -2.11857 0 0 255
-18.7249 -10.8541 -2.9042 0 0 255
-17.8749 -10.862 -2.66031 0 0 255
-15.8845 -11.0607 -2.06864 0 0 255
-15.3448 -11.889 -1.582 0 0 255
-18.5435 -10.9083 -4.02663 0 0 255
-15.5622 -11.284 -2.41823 0 0 255
-15.1344 -11.9599 -2.25504 0 0 255
-15.0949 -11.9809 -2.22331 0 0 255
-16.6823 -11.3533 -4.00963 0 0 255
-14.8137 -12.0645 -2.4246 0 0 255
-15.2206 -11.9371 -3.37124 0 0 255
-15.033 -11.9909 -3.60096 0 0 255
-17.9604 -10.2652 0.426312 0 0 255
-17.6526 -10.378 0.371919 0 0 255
-20.2209 -10.3685 -0.670371 0 0 255
-18.6036 -10.3996 -0.509906 0 0 255
-18.4775 -10.319 -0.906658 0 0 255
-17.223 -10.8168 -0.390766 0 0 255
-15.7786 -11.4359 -0.927385 0 0 255
-17.099 -10.603 -2.25634 0 0 255
-15.8238 -11.4495 -1.36803 0 0 255
-16.4782 -10.848 -2.52573 0 0 255
-15.8477 -11.016 -2.452 0 0 255
-17.1388 -10.7207 -3.42098 0 0 255
-16.4745 -10.7744 -3.0197 0 0 255
-18.2617 -10.9782 -4.28043 0 0 255
-15.0348 -12.0002 -3.54687 0 0 255
-20.1183 -10.359 0.259859 0 0 255
-18.2784 -10.1836 0.318294 0 0 255
-19.616 -10.5519 -0.291639 0 0 255
-16.5474 -10.749 -0.375462 0 0 255
-16.0642 -11.1548 -0.983769 0 0 255
-16.8731 -10.9504 -1.53678 0 0 255
-16.6887 -10.9749 -1.75658 0 0 255
-15.587 -11.5143 -1.02319 0 0 255
-17.003 -10.8001 -2.14907 0 0 255
-16.6748 -10.9609 -1.91431 0 0 255
-16.5047 -10.9835 -2.02229 0 0 255
-16.1945 -10.9027 -2.24486 0 0 255
-16.0692 -10.9566 -2.14934 0 0 255
-15.3425 -11.4355 -1.49029 0 0 255
-15.8764 -10.9804 -2.16245 0 0 255
-16.189 -10.7906 -2.76998 0 0 255
-14.8856 -12.0318 -2.4335 0 0 255
-16.587 -10.99 -0.504045 0 0 255
-17.0709 -10.7223 -3.32361 0 0 255
-16.565 -10.9672 -0.868983 0 0 255
-16.9037 -10.9901 -1.48739 0 0 255
-16.6843 -11.1715 -1.46012 0 0 255
-14.5029 -12.1606 -3.40679 0 0 255
-16.404 -11.1534 -0.858807 0 0 255
-17.1769 -10.6779 -1.92843 0 0 255
-16.9926 -10.7544 -1.88139 0 0 255
-15.6268 -11.3161 -2.07153 0 0 255
-15.9397 -11.0719 -2.59914 0 0 255
-21.8135 -9.54303 1.54489 0 0 255
-16.1243 -11.1334 -1.43814 0 0 255
-15.5751 -11.3623 -2.17531 0 0 255
-15.3425 -11.7435 -1.75508 0 0 255
-18.5922 -10.4887 -0.599745 0 0 255
-16.4167 -11.1112 -1.34591 0 0 255
-15.287 -11.921 -3.50192 0 0 255
-15.2889 -11.9202 -3.23554 0 0 255
-15.8413 -11.1541 -3.17752 0 0 255
-20.3473 -10.3431 -4.35242 0 0 255
-18.2141 -11.019 -3.80709 0 0 255
-14.9148 -12.0243 -2.9956 0 0 255
-15.0004 -12.0128 -2.89196 0 0 255
-15.283 -11.9254 -2.83714 0 0 255
-18.6656 -10.8543 -3.47456 0 0 255
-15.1106 -11.9745 -2.74126 0 0 255
-15.4688 -11.8498 -2.68373 0 0 255
-15.2426 -11.9298 -2.55311 0 0 255
-15.2793 -11.9164 -2.55317 0 0 255
-15.0465 -11.983 -2.45508 0 0 255
-16.2197 -10.9454 -2.55674 0 0 255
-18.584 -10.8789 -2.90987 0 0 255
-18.6427 -10.8673 -2.90769 0 0 255
-18.65 -10.8796 -2.89134 0 0 255
-20.6649 -10.2216 -3.20779 0 0 255
-16.095 -10.9239 -2.17404 0 0 255
-15.0617 -11.9702 -2.10883 0 0 255
-15.9168 -11.0007 -2.09363 0 0 255
-20.3168 -10.3373 -2.77125 0 0 255
-20.2243 -10.3806 -2.71062 0 0 255
-20.0161 -10.4378 -2.55105 0 0 255
-20.3978 -10.3413 -2.49737 0 0 255
-20.3005 -10.3472 -2.40979 0 0 255
-16.5966 -10.9941 -1.74128 0 0 255
-16.5297 -11.0069 -1.73253 0 0 255
-20.2199 -10.3476 -2.18684 0 0 255
-16.6962 -10.9636 -1.69004 0 0 255
-20.5972 -10.2521 -1.85953 0 0 255
-16.6347 -10.9733 -1.28753 0 0 255
-19.7041 -10.5352 -1.61357 0 0 255
-20.573 -10.2374 -1.28891 0 0 255
-15.8222 -11.4326 -0.65418 0 0 255
-20.209 -10.3708 -0.87266 0 0 255
-20.2081 -10.3638 -0.855502 0 0 255
-16.5764 -11.0513 -0.594907 0 0 255
-18.2562 -10.6436 -0.565329 0 0 255
-18.6365 -10.3842 -0.536017 0 0 255
-16.3692 -10.922 -0.256958 0 0 255
-16.0393 -11.1619 -0.24238 0 0 255
-19.7239 -10.5221 -0.296303 0 0 255
-18.552 -10.4028 -0.11688 0 0 255
-16.0892 -11.1565 -0.056291 0 0 255
-16.0012 -11.1857 -0.054352 0 0 255
-20.6297 -10.2112 0.161227 0 0 255
-16.912 -10.592 0.569359 0 0 255
-16.2607 -8.97873 0.934982 0 0 255
-16.4453 -8.90914 1.24014 0 0 255
-16.3714 -11.5817 -4.00551 0 0 255
-18.1966 -11.0053 -3.99288 0 0 255
-15.2243 -11.9279 -3.06448 0 0 255
-19.5806 -10.5935 -4.01266 0 0 255
-15.1513 -11.9579 -2.94193 0 0 255
-14.8993 -12.0461 -2.75356 0 0 255
-18.8297 -10.7886 -3.49603 0 0 255
-15.1409 -11.9647 -2.73602 0 0 255
-19.0127 -10.7805 -3.49954 0 0 255
-15.0937 -11.9628 -2.46396 0 0 255
-19.3454 -10.6383 -3.2045 0 0 255
-16.0185 -10.9423 -2.17881 0 0 255
-20.198 -10.3793 -2.76799 0 0 255
-15.1555 -11.9559 -1.88294 0 0 255
-20.4262 -10.2784 -2.51262 0 0 255
-20.6144 -10.2457 -2.52909 0 0 255
-20.6238 -10.2472 -2.19067 0 0 255
-16.7666 -10.9522 -1.66312 0 0 255
-15.5291 -11.4997 -1.34955 0 0 255
-18.9871 -10.7484 -1.60727 0 0 255
-15.9358 -11.1821 -1.05008 0 0 255
-19.3233 -10.6381 -1.31722 0 0 255
-15.5403 -11.5204 -0.859361 0 0 255
-15.5562 -11.5211 -0.807755 0 0 255
-20.6108 -10.2374 -1.05095 0 0 255
-16.5789 -11.0711 -0.585232 0 0 255
-20.6567 -10.2317 -0.641246 0 0 255
-16.4811 -10.7759 -0.390907 0 0 255
-17.9447 -10.2788 0.324159 0 0 255
-18.5805 -10.062 0.377824 0 0 255
-20.9787 -9.75708 1.61728 0 0 255
-14.8915 -12.0068 -2.89342 0 0 255
-15.3891 -11.878 -2.90676 0 0 255
-15.9168 -10.9821 -2.22017 0 0 255
-15.9343 -10.9683 -2.14479 0 0 255
-16.649 -10.962 -2.11329 0 0 255
-20.7926 -10.1983 -2.72133 0 0 255
-15.4533 -11.574 -1.23097 0 0 255
-16.9015 -10.7605 -1.29147 0 0 255
-16.8076 -10.9907 -1.23878 0 0 255
-15.956 -11.1805 -0.991499 0 0 255
-17.9305 -10.7924 -0.793927 0 0 255
-17.2465 -10.7934 -0.695653 0 0 255
-19.7974 -10.5032 -0.500082 0 0 255
-16.5315 -10.7469 -0.285604 0 0 255
-16.4239 -10.7967 -0.234713 0 0 255
-21.5627 -9.78938 1.56326 0 0 255
-19.2962 -9.12226 1.65322 0 0 255
-15.0427 -12.0173 -3.50614 0 0 255
-19.7524 -10.4707 -3.51651 0 0 255
-17.4319 -10.5121 -2.80866 0 0 255
-17.124 -10.5789 -2.37975 0 0 255
-15.8813 -11.1523 -2.1028 0 0 255
-19.5713 -10.5706 -2.49569 0 0 255
-16.051 -11.1665 -0.98035 0 0 255
-16.5049 -10.9588 -0.743964 0 0 255
-18.5508 -10.5317 -0.438634 0 0 255
-16.3756 -10.8349 -0.24508 0 0 255
-16.8159 -10.8473 -0.133742 0 0 255
-18.1897 -10.1928 0.361371 0 0 255
-17.942 -10.2726 0.358264 0 0 255
-16.6905 -10.6628 0.350749 0 0 255
-18.0569 -10.2223 0.516915 0 0 255
-14.926 -12.0199 -3.50804 0 0 255
-18.6009 -10.8571 -4.27832 0 0 255
-15.6298 -10.9203 -2.87743 0 0 255
-15.8896 -10.8519 -2.79723 0 0 255
-19.9179 -10.4432 -3.51862 0 0 255
-15.861 -11.0927 -2.5122 0 0 255
-16.9966 -10.6401 -2.13612 0 0 255
-16.5746 -10.9347 -2.0533 0 0 255
-16.1696 -11.1483 -0.970944 0 0 255
-16.5371 -10.7258 -0.367903 0 0 255
-16.4422 -10.7751 -0.230229 0 0 255
-16.1812 -11.1195 -0.129918 0 0 255
-16.3097 -11.0875 -1.61578 0 0 255
-16.5527 -10.7746 -0.413301 0 0 255
-16.0376 -11.1405 -0.389444 0 0 255
-17.9018 -10.7786 -0.305829 0 0 255
-15.6244 -11.4752 -1.36364 0 0 255
-17.0002 -10.827 -1.40063 0 0 255
-16.5582 -10.6224 -0.357967 0 0 255
-16.152 -11.1544 -0.061039 0 0 255
-16.2419 -11.0553 -0.908792 0 0 255
-17.761 -10.3352 0.311456 0 0 255
-15.435 -11.9181 -2.81028 0 0 255
-15.7277 -11.3583 -2.598 0 0 255
-15.845 -11.1643 -2.56797 0 0 255
-16.3141 -11.1092 -1.0916 0 0 255
-15.932 -10.9198 -2.53741 0 0 255
-16.2614 -11.0146 -1.84632 0 0 255
-15.7806 -11.4555 -1.16272 0 0 255
-19.6269 -10.5812 -4.59895 0 0 255
-19.5977 -10.5903 -4.58206 0 0 255
-20.2306 -10.3611 -4.39952 0 0 255
-20.1513 -10.3877 -4.40029 0 0 255
-20.2832 -10.375 -4.39816 0 0 255
-20.1667 -10.4118 -4.38727 0 0 255
-20.3531 -10.3483 -4.36173 0 0 255
-19.8927 -10.4966 -4.40295 0 0 255
-18.9313 -10.7879 -4.37091 0 0 255
-19.5542 -10.6065 -4.21978 0 0 255
-19.4956 -10.6212 -4.21182 0 0 255
-17.6951 -11.1072 -4.23413 0 0 255
-17.6868 -11.156 -4.26835 0 0 255
-19.4471 -10.6102 -3.9977 0 0 255
-18.5236 -10.9126 -4.01594 0 0 255
-17.6569 -11.1885 -4.079 0 0 255
-17.4803 -11.222 -4.04968 0 0 255
-19.2036 -10.7014 -3.71269 0 0 255
-19.8756 -10.4892 -3.5531 0 0 255
-16.1263 -11.6745 -4.02055 0 0 255
-18.6428 -10.8749 -3.51097 0 0 255
-20.558 -10.2698 -3.21659 0 0 255
-20.402 -10.303 -3.2073 0 0 255
-20.2722 -10.3509 -3.18453 0 0 255
-19.9761 -10.4549 -3.23064 0 0 255
-16.0931 -11.6638 -3.67605 0 0 255
-16.7592 -10.7137 -3.0394 0 0 255
-16.7467 -10.727 -3.03534 0 0 255
-20.3364 -10.3296 -2.9037 0 0 255
-20.9408 -10.1672 -2.73996 0 0 255
-15.8275 -11.7577 -3.49447 0 0 255
-15.6775 -11.796 -3.48803 0 0 255
-19.0547 -10.7287 -2.88306 0 0 255
-14.8223 -12.0677 -3.60184 0 0 255
-18.6262 -10.8639 -2.90581 0 0 255
-18.7622 -10.844 -2.88747 0 0 255
-18.6494 -10.8781 -2.89252 0 0 255
-15.1348 -11.9398 -3.46991 0 0 255
-18.4871 -10.9225 -2.87511 0 0 255
-14.8974 -12.0365 -3.49015 0 0 255
-14.551 -12.15 -3.48368 0 0 255
-14.5727 -12.1368 -3.46724 0 0 255
-15.1698 -11.9578 -3.22506 0 0 255
-16.3483 -10.904 -2.55147 0 0 255
-14.9251 -12.0289 -3.21567 0 0 255
-16.116 -10.9768 -2.55214 0 0 255
-15.3537 -11.884 -2.98134 0 0 255
-19.1484 -10.7111 -2.19137 0 0 255
-20.6114 -10.2526 -1.85572 0 0 255
-16.957 -10.6757 -2.1773 0 0 255
-15.3566 -11.8946 -2.90713 0 0 255
-14.9148 -12.0272 -2.99665 0 0 255
-17.1253 -10.6413 -2.10272 0 0 255
-20.5948 -10.2462 -1.58596 0 0 255
-15.4155 -11.8749 -2.71091 0 0 255
-20.421 -10.2908 -1.58284 0 0 255
-15.9603 -10.9654 -2.16098 0 0 255
-17.0045 -10.7065 -1.94425 0 0 255
-16.971 -10.7453 -1.89158 0 0 255
-16.3962 -11.0469 -1.97177 0 0 255
-18.976 -10.7497 -1.60596 0 0 255
-18.9067 -10.7726 -1.58684 0 0 255
-17.729 -10.8054 -1.65622 0 0 255
-19.4114 -10.6001 -1.28568 0 0 255
-20.5311 -10.2625 -1.00949 0 0 255
-16.5561 -11.0026 -1.71655 0 0 255
-16.533 -11.015 -1.70409 0 0 255
-15.0694 -11.9725 -2.25488 0 0 255
-15.1003 -11.9688 -2.23143 0 0 255
-15.0639 -11.9816 -2.24283 0 0 255
-15.0581 -11.9736 -2.1094 0 0 255
-16.6291 -10.9541 -1.29882 0 0 255
-17.1448 -10.7878 -1.02651 0 0 255
-17.0348 -10.8614 -0.975234 0 0 255
-18.0298 -10.7715 -0.763485 0 0 255
-17.883 -10.8019 -0.792098 0 0 255
-15.5525 -11.4817 -1.42772 0 0 255
-15.5559 -11.5001 -1.3712 0 0 255
-20.5882 -10.2379 -0.026626 0 0 255
-15.5824 -11.5146 -1.33834 0 0 255
-17.2906 -10.7821 -0.724721 0 0 255
-15.9792 -11.1542 -1.02941 0 0 255
-20.715 -10.1868 0.161711 0 0 255
-20.6545 -10.2146 0.157539 0 0 255
-20.6804 -10.1852 0.17864 0 0 255
-16.537 -10.9027 -0.736173 0 0 255
-16.5131 -10.9177 -0.747458 0 0 255
-18.4067 -10.6448 -0.305892 0 0 255
-15.9171 -11.2015 -0.969467 0 0 255
-16.505 -10.9439 -0.711882 0 0 255
-16.6413 -11.0165 -0.606469 0 0 255
-16.1694 -11.1269 -0.722752 0 0 255
-17.7539 -10.8572 -0.191676 0 0 255
-15.6408 -11.5022 -0.781822 0 0 255
-17.122 -10.8413 -0.196529 0 0 255
-18.3535 -10.1462 0.403683 0 0 255
-18.3719 -10.1381 0.506186 0 0 255
-16.2491 -10.9698 -0.266713 0 0 255
-15.565 -11.496 -0.615719 0 0 255
-18.042 -10.2361 0.512745 0 0 255
-16.2285 -11.0934 -0.182467 0 0 255
-16.0376 -11.158 -0.246309 0 0 255
-17.5434 -10.4017 0.56772 0 0 255
-16.7864 -8.80109 1.06804 0 0 255
-16.3913 -8.92556 0.923749 0 0 255
-16.0042 -11.1852 -0.057644 0 0 255
-19.2797 -9.15597 1.65285 0 0 255
-16.8015 -8.80478 1.27175 0 0 255
-16.9376 -10.4726 0.654376 0 0 255
-15.9438 -9.07229 1.13845 0 0 255
-15.8661 -10.9253 0.403194 0 0 255
-18.5642 -10.8919 -4.27089 0 0 255
-18.6878 -10.863 -4.22978 0 0 255
-18.2388 -10.9984 -4.25325 0 0 255
-18.403 -10.9446 -4.2116 0 0 255
-18.7335 -10.8354 -4.16505 0 0 255
-18.3629 -10.9647 -4.18155 0 0 255
-18.3161 -10.9939 -4.19346 0 0 255
-17.7222 -11.167 -4.20226 0 0 255
-19.3227 -10.6774 -4.02629 0 0 255
-17.6517 -11.1899 -4.20345 0 0 255
-20.3992 -10.3216 -3.76321 0 0 255
-18.2332 -11.0254 -4.01198 0 0 255
-19.9047 -10.4698 -3.76963 0 0 255
-17.308 -11.3193 -4.06138 0 0 255
-17.2539 -11.3331 -4.05266 0 0 255
-20.5507 -10.2314 -3.22356 0 0 255
-18.9898 -10.7923 -3.48546 0 0 255
-16.0831 -11.6663 -3.65615 0 0 255
-16.8338 -10.7089 -3.01728 0 0 255
-15.5189 -11.8555 -3.69446 0 0 255
-20.7238 -10.2297 -2.78794 0 0 255
-20.1352 -10.3762 -2.78955 0 0 255
-15.4377 -11.861 -3.55091 0 0 255
-15.8021 -11.7673 -3.48486 0 0 255
-15.0546 -12.0008 -3.51109 0 0 255
-14.8461 -12.042 -3.52764 0 0 255
-18.5576 -10.9087 -2.86576 0 0 255
-14.7667 -12.0797 -3.51292 0 0 255
-19.5924 -10.5691 -2.61056 0 0 255
-14.5967 -12.118 -3.47229 0 0 255
-15.1702 -11.9558 -3.20279 0 0 255
-14.8869 -12.0387 -3.22732 0 0 255
-19.9936 -10.4413 -1.89377 0 0 255
-16.0766 -10.9277 -2.25572 0 0 255
-14.7845 -12.0804 -2.91223 0 0 255
-15.8863 -11.0317 -2.09117 0 0 255
-15.9303 -11.0267 -2.07544 0 0 255
-16.8504 -10.911 -1.95149 0 0 255
-14.796 -12.0879 -2.72048 0 0 255
-16.6553 -10.9729 -1.73583 0 0 255
-15.0438 -12.0016 -2.23928 0 0 255
-16.3443 -11.0801 -1.54899 0 0 255
-15.583 -11.4695 -1.79858 0 0 255
-20.2252 -10.3678 -0.720836 0 0 255
-16.2205 -11.1162 -1.39156 0 0 255
-15.809 -11.4452 -1.33173 0 0 255
-16.1228 -11.1348 -0.96103 0 0 255
-18.4657 -10.4107 -0.085113 0 0 255
-17.2464 -10.7959 -0.458283 0 0 255
-18.5207 -10.0794 0.368563 0 0 255
-16.0598 -11.1617 -0.561807 0 0 255
-16.4026 -10.8619 -0.309062 0 0 255
-16.9839 -10.8614 -0.179131 0 0 255
-16.1257 -11.1366 -0.453084 0 0 255
-16.9996 -10.8618 -0.153041 0 0 255
-15.9542 -11.1977 -0.449214 0 0 255
-21.6796 -9.73447 1.60143 0 0 255
-16.2142 -11.1163 -0.175585 0 0 255
-16.1216 -11.1448 -0.205987 0 0 255
-17.2853 -10.4727 0.36906 0 0 255
-17.4657 -10.4193 0.50531 0 0 255
-15.7926 -11.4413 -0.14639 0 0 255
-15.9492 -9.07307 1.24487 0 0 255
-15.9082 -8.64656 1.68489 0 0 255
-20.072 -10.4519 -4.25248 0 0 255
-18.8152 -10.8114 -4.25806 0 0 255
-18.7196 -10.8686 -4.26353 0 0 255
-18.6367 -10.8654 -4.17013 0 0 255
-20.2517 -10.3881 -3.99384 0 0 255
-18.8108 -10.8187 -4.06647 0 0 255
-20.5919 -10.2386 -3.7483 0 0 255
-17.7924 -11.1367 -4.03749 0 0 255
-17.8151 -11.142 -4.01433 0 0 255
-17.2815 -11.2859 -4.06575 0 0 255
-16.3901 -11.5527 -4.03027 0 0 255
-19.8071 -10.5197 -3.54805 0 0 255
-18.9771 -10.7832 -3.5033 0 0 255
-18.8733 -10.8158 -3.51414 0 0 255
-18.5765 -10.9197 -3.50088 0 0 255
-20.4536 -10.3679 -3.21129 0 0 255
-15.7973 -11.7741 -3.81105 0 0 255
-20.7634 -10.2415 -2.82915 0 0 255
-15.8452 -10.8478 -2.94465 0 0 255
-15.7717 -10.8811 -2.80332 0 0 255
-14.3743 -12.2002 -3.51484 0 0 255
-17.3181 -10.6214 -2.41805 0 0 255
-17.1572 -10.6159 -2.35869 0 0 255
-14.6321 -12.1182 -3.22785 0 0 255
-15.9372 -10.958 -2.21745 0 0 255
-19.5447 -10.5804 -1.61818 0 0 255
-16.9115 -10.8948 -1.93139 0 0 255
-14.7021 -12.098 -2.69736 0 0 255
-16.5124 -11.0163 -1.8541 0 0 255
-19.3402 -10.6233 -1.31407 0 0 255
-16.8287 -10.9584 -1.57082 0 0 255
-15.3964 -11.3692 -1.91701 0 0 255
-19.9896 -10.4174 -1.00678 0 0 255
-15.0561 -11.9652 -1.87743 0 0 255
-18.1045 -10.751 -0.405527 0 0 255
-17.2306 -10.8047 -0.495601 0 0 255
-17.1246 -10.826 -0.378843 0 0 255
-18.5302 -10.0468 0.496988 0 0 255
-16.3904 -10.8445 -0.254028 0 0 255
-18.5385 -10.078 0.535393 0 0 255
-17.4819 -10.5881 0.24985 0 0 255
-20.0451 -10.4222 -3.99438 0 0 255
-18.395 -10.9622 -4.03967 0 0 255
-17.6694 -11.1754 -4.05559 0 0 255
-17.0411 -10.6921 -3.52041 0 0 255
-18.8534 -10.8228 -3.48528 0 0 255
-16.5299 -10.742 -3.05535 0 0 255
-15.5568 -11.8651 -3.5454 0 0 255
-15.2007 -11.952 -3.37634 0 0 255
-16.4388 -10.7414 -2.47 0 0 255
-16.9515 -10.6735 -2.19684 0 0 255
-17.0008 -10.6544 -2.14354 0 0 255
-17.7377 -10.6564 -1.99729 0 0 255
-17.0305 -10.6788 -2.03786 0 0 255
-16.0844 -10.9289 -2.1823 0 0 255
-15.732 -11.4525 -1.45829 0 0 255
-20.0154 -10.4088 0.246647 0 0 255
-16.5314 -10.742 -0.415532 0 0 255
-16.5857 -10.7225 -0.318405 0 0 255
-18.5562 -10.0749 0.453407 0 0 255
-15.4784 -11.5479 -0.805087 0 0 255
-17.9444 -10.2664 0.368763 0 0 255
-16.2198 -11.0009 -0.266197 0 0 255
-16.5977 -10.7345 -3.01961 0 0 255
-15.6754 -10.869 -2.90536 0 0 255
-15.6461 -11.023 -2.89137 0 0 255
-14.3966 -12.1863 -3.47775 0 0 255
-17.9303 -10.5447 -2.11815 0 0 255
-16.0271 -10.9126 -2.26917 0 0 255
-15.8386 -11.089 -2.15981 0 0 255
-16.5022 -11.0111 -1.93558 0 0 255
-16.2748 -11.0745 -1.43551 0 0 255
-17.1565 -10.8069 -0.989672 0 0 255
-16.8083 -10.9411 -1.0091 0 0 255
-16.1715 -11.1458 -0.956415 0 0 255
-16.0577 -11.162 -0.981776 0 0 255
-16.535 -10.9101 -0.720272 0 0 255
-16.4622 -11.0423 -0.773001 0 0 255
-17.3305 -10.4632 0.360111 0 0 255
-16.0799 -10.8537 0.464718 0 0 255
-17.081 -10.7308 -3.43913 0 0 255
-15.3876 -11.8777 -3.78666 0 0 255
-14.5025 -12.1947 -3.30281 0 0 255
-18.7049 -10.3807 -0.506913 0 0 255
-15.7839 -11.4027 -1.32043 0 0 255
-16.4876 -11.0298 -0.720093 0 0 255
-17.8985 -10.3114 0.312267 0 0 255
-17.1189 -10.613 -1.92604 0 0 255
-15.2834 -11.4304 -2.04904 0 0 255
-18.4932 -10.4261 -0.523245 0 0 255
-17.2031 -10.8463 -0.103464 0 0 255
-17.0968 -11.3569 -4.03252 0 0 255
-15.9947 -10.9821 -2.28121 0 0 255
-18.9097 -10.5189 -0.619327 0 0 255
-16.065 -11.1186 -1.23924 0 0 255
-16.5062 -11.1729 -0.579058 0 0 255
-16.8678 -8.76461 1.40315 0 0 255
-16.3785 -10.7468 -3.07923 0 0 255
-18.627 -10.2884 -0.859378 0 0 255
-16.2772 -11.0977 -1.01608 0 0 255
-16.6291 -11.3433 -3.83621 0 0 255
-16.9494 -10.7929 -1.97983 0 0 255
-15.9283 -11.0495 -2.14758 0 0 255
-18.4607 -10.7214 -2.86647 0 0 255
-17.1967 -10.7529 -1.74192 0 0 255
-18.0223 -10.6805 -1.37184 0 0 255
-20.1434 -10.4166 -4.39005 0 0 255
-20.6562 -10.2228 -3.76253 0 0 255
-20.6695 -10.2218 -3.20334 0 0 255
-19.2093 -10.703 -3.71459 0 0 255
-19.3582 -10.6505 -3.17369 0 0 255
-17.7165 -11.1565 -4.23511 0 0 255
-17.666 -11.1769 -4.27866 0 0 255
-20.0899 -10.3971 -1.86035 0 0 255
-15.9847 -11.0253 -3.48624 0 0 255
-16.2937 -10.8668 -3.00394 0 0 255
-17.1202 -10.6108 -2.25324 0 0 255
-16.7813 -10.7664 -2.54853 0 0 255
-17.1711 -10.642 -2.08285 0 0 255
-18.8316 -10.8027 -1.58757 0 0 255
-20.6207 -10.2199 -0.038874 0 0 255
-20.2613 -10.3386 0.002309 0 0 255
-16.9475 -10.8756 -2.02075 0 0 255
-16.7959 -10.922 -1.97292 0 0 255
-15.7737 -11.7574 -3.33158 0 0 255
-15.9456 -10.9605 -2.16101 0 0 255
-15.7958 -11.03 -2.27133 0 0 255
-16.7165 -10.9637 -1.68758 0 0 255
-16.6215 -10.9879 -1.72556 0 0 255
-15.5624 -11.8267 -3.20013 0 0 255
-17.8611 -10.7975 -0.790326 0 0 255
-18.5413 -10.0811 0.486636 0 0 255
-15.8596 -11.0351 -1.92986 0 0 255
-15.422 -11.8704 -2.91169 0 0 255
-14.5489 -12.1478 -3.48315 0 0 255
-17.9501 -10.2676 0.526731 0 0 255
-17.2902 -10.7873 -0.197467 0 0 255
-16.5364 -10.8988 -0.728288 0 0 255
-17.1201 -10.8378 -0.197094 0 0 255
-15.9187 -11.2098 -0.457759 0 0 255
-15.9683 -11.1863 -0.232641 0 0 255
-15.542 -11.5248 -0.85246 0 0 255
-15.5549 -11.5195 -0.813829 0 0 255
-16.3242 -10.7803 0.519976 0 0 255
-15.5242 -11.507 -0.629036 0 0 255
-20.3326 -10.3465 -4.36207 0 0 255
-16.9903 -10.4284 -3.07729 0 0 255
-16.683 -11.3518 -4.02082 0 0 255
-16.097 -10.9912 -3.54186 0 0 255
-16.0107 -11.0051 -3.45531 0 0 255
-16.259 -11.6191 -4.01113 0 0 255
-16.2267 -11.7031 -4.09982 0 0 255
-20.218 -10.3527 -0.745065 0 0 255
-17.1021 -10.6486 -2.16677 0 0 255
-17.2105 -10.6265 -2.03706 0 0 255
-16.8305 -10.9163 -1.94958 0 0 255
-15.8966 -11.0533 -2.52025 0 0 255
-15.9474 -10.9369 -2.23085 0 0 255
-16.0573 -10.9467 -2.18604 0 0 255
-20.083 -10.3815 0.327214 0 0 255
-15.7726 -11.7582 -3.30992 0 0 255
-16.0244 -10.9858 -2.0694 0 0 255
-15.3251 -11.9001 -3.46304 0 0 255
-18.2398 -10.6888 -0.416716 0 0 255
-15.859 -11.0212 -1.8951 0 0 255
-14.6974 -12.0894 -3.69701 0 0 255
-17.2417 -10.7981 -0.446366 0 0 255
-17.2231 -10.8203 -0.468208 0 0 255
-14.3443 -12.2018 -3.54815 0 0 255
-17.0599 -10.8478 -0.453427 0 0 255
-17.2568 -10.794 -0.229852 0 0 255
-17.4373 -10.5711 0.25687 0 0 255
-16.4756 -10.7758 -0.409384 0 0 255
-16.4442 -10.786 -0.387989 0 0 255
-16.6326 -10.8355 -0.180793 0 0 255
-16.9074 -10.8615 -0.045274 0 0 255
-16.0915 -11.1562 -0.755144 0 0 255
-16.0363 -11.1576 -0.770885 0 0 255
-15.9797 -11.191 -0.751314 0 0 255
-16.6857 -10.6599 0.373855 0 0 255
-16.2438 -11.0709 -0.165728 0 0 255
-16.1965 -11.1206 -0.144151 0 0 255
-15.773 -11.4535 -0.397573 0 0 255
-16.0864 -10.8522 0.523245 0 0 255
-19.3014 -10.6771 -4.02721 0 0 255
-17.7651 -11.1433 -4.25346 0 0 255
-17.8375 -11.1424 -4.05014 0 0 255
-17.1383 -10.4558 -2.95514 0 0 255
-19.8758 -10.4506 -1.87398 0 0 255
-17.0281 -10.6514 -2.28279 0 0 255
-16.1733 -10.9515 -2.53081 0 0 255
-21.6208 -9.72229 1.58471 0 0 255
-16.7922 -10.9327 -1.86499 0 0 255
-19.9793 -10.4385 0.280963 0 0 255
-14.8423 -12.0555 -3.56644 0 0 255
-18.227 -10.1791 0.407156 0 0 255
-17.2703 -10.7975 -0.709327 0 0 255
-14.5595 -12.1478 -3.50648 0 0 255
-15.1816 -11.2859 -2.16547 0 0 255
-15.2567 -11.9287 -2.87803 0 0 255
-17.895 -10.2946 0.4466 0 0 255
-17.1125 -10.8486 -0.389421 0 0 255
-17.2218 -10.8101 -0.182517 0 0 255
-16.0815 -11.1314 -1.07877 0 0 255
-17.0958 -10.8452 -0.180932 0 0 255
-16.127 -11.1414 -0.564578 0 0 255
-15.9754 -11.1851 -0.705416 0 0 255
-15.4544 -11.5645 -0.959459 0 0 255
-16.0308 -10.876 0.454282 0 0 255
-15.9425 -11.1735 -3.32844 0 0 255
-16.1487 -11.6612 -3.80935 0 0 255
-15.563 -11.8255 -3.6968 0 0 255
-20.0324 -10.4087 0.249757 0 0 255
-15.8203 -11.2304 -2.31237 0 0 255
-15.8799 -11.0097 -2.00053 0 0 255
-18.3831 -10.1154 0.416548 0 0 255
-17.1424 -10.8007 -0.992477 0 0 255
-18.1549 -10.1932 0.365539 0 0 255
-17.4764 -10.4074 0.51857 0 0 255
-14.9662 -12.0077 -2.45044 0 0 255
-15.8008 -11.4559 -0.648953 0 0 255
-16.0511 -11.1674 -0.10479 0 0 255
-19.2932 -10.6617 -3.6129 0 0 255
-17.7085 -10.6833 -2.03899 0 0 255
-17.6729 -10.84 -1.1279 0 0 255
-16.9269 -10.8447 -1.36156 0 0 255
-17.1519 -10.8005 -1.05875 0 0 255
-14.8434 -12.0884 -3.53797 0 0 255
-15.1579 -11.3798 -2.14131 0 0 255
-14.9883 -11.9878 -2.26015 0 0 255
-21.6482 -9.55522 1.43765 0 0 255
-21.0144 -9.82313 1.53664 0 0 255
-14.3851 -12.1979 -3.52623 0 0 255
-16.9443 -10.5784 0.606551 0 0 255
-18.2573 -10.4278 -0.767133 0 0 255
-16.4566 -11.0078 -2.02492 0 0 255
-16.5989 -11.0456 -1.07922 0 0 255
-15.2335 -11.4262 -2.0584 0 0 255
-15.4943 -11.534 -0.889137 0 0 255
-16.2245 -10.8836 -2.22384 0 0 255
-16.1658 -10.9157 -2.15697 0 0 255
-18.384 -10.4352 -0.54289 0 0 255
-16.9278 -10.8184 -2.21451 0 0 255
-15.6812 -11.419 -2.43488 0 0 255
-16.4841 -11.1218 -1.17155 0 0 255
-16.5657 -11.0139 -0.643186 0 0 255
-15.27 -11.9216 -1.91114 0 0 255
-18.3681 -10.5337 -0.511911 0 0 255
-17.4634 -10.6537 -2.46278 0 0 255
-21.6926 -9.80887 -0.003436 0 0 255
-21.6943 -9.80624 0.055976 0 0 255
-20.7013 -10.2224 -3.20381 0 0 255
-21.6565 -9.84373 0.2866 0 0 255
-20.1008 -10.4051 -4.38054 0 0 255
-19.5505 -10.5904 -3.46778 0 0 255
-20.0506 -10.4011 -0.043414 0 0 255
-20.0451 -10.3853 0.367815 0 0 255
-18.5391 -10.2131 -0.810912 0 0 255
-17.2765 -11.2979 -4.04461 0 0 255
-17.6826 -10.8556 -0.539721 0 0 255
-17.2157 -10.7699 -1.03575 0 0 255
-16.5584 -10.8301 -2.54824 0 0 255
-16.1965 -10.9622 -2.57655 0 0 255
-16.6021 -11.0524 -1.70853 0 0 255
-15.9477 -10.9637 -2.20319 0 0 255
-15.9988 -10.979 -2.0951 0 0 255
-16.5122 -10.9209 -0.737928 0 0 255
-15.8022 -11.0304 -2.23335 0 0 255
-15.8323 -11.443 -0.628532 0 0 255
-15.1 -11.975 -3.53634 0 0 255
-14.7896 -12.0883 -2.911 0 0 255
-21.7072 -9.78141 1.29935 0 0 255
-20.4788 -10.2739 -1.81658 0 0 255
-19.7166 -10.5258 -0.296818 0 0 255
-17.9445 -10.2691 0.529079 0 0 255
-17.929 -10.2811 0.497071 0 0 255
-17.6656 -10.8598 -0.461874 0 0 255
-16.3276 -10.9996 -3.53896 0 0 255
-16.8387 -10.9153 -1.59256 0 0 255
-17.172 -10.8223 -0.262006 0 0 255
-15.9831 -11.0219 -3.4543 0 0 255
-17.1471 -10.8317 -0.193504 0 0 255
-16.394 -11.0449 -1.96183 0 0 255
-16.027 -10.9385 -2.22492 0 0 255
-16.9176 -10.8623 -0.036071 0 0 255
-16.0397 -10.953 -2.14617 0 0 255
-16.0863 -10.985 -2.06709 0 0 255
-16.5411 -10.8998 -0.750106 0 0 255
-16.4289 -10.7758 -0.341707 0 0 255
-16.1793 -11.1269 -0.494626 0 0 255
-16.1704 -11.133 -0.197793 0 0 255
-15.9945 -11.1823 -0.754093 0 0 255
-16.0945 -11.1549 -0.056212 0 0 255
-15.9991 -11.182 -0.196626 0 0 255
-15.7877 -11.4521 -0.414233 0 0 255
-15.7683 -11.4521 -0.450376 0 0 255
-15.4693 -11.476 -1.14268 0 0 255
-15.7367 -11.4617 -0.183711 0 0 255
-14.9694 -11.999 -2.48761 0 0 255
-20.2788 -10.3481 -2.18264 0 0 255
-20.0169 -10.4147 0.366044 0 0 255
-18.3363 -10.9548 -4.05549 0 0 255
-18.5374 -10.078 0.375498 0 0 255
-17.9542 -10.1859 0.355329 0 0 255
-17.1669 -10.8305 -0.313058 0 0 255
-17.12 -10.8349 -0.042805 0 0 255
-16.1292 -11.128 -0.699676 0 0 255
-16.042 -11.19 -0.198175 0 0 255
-15.4754 -11.5449 -0.811242 0 0 255
-14.3128 -12.1876 -3.52332 0 0 255
-21.6342 -9.65711 1.55243 0 0 255
-17.7435 -10.8538 -0.193256 0 0 255
-16.8217 -10.9221 -1.88689 0 0 255
-17.1172 -10.8341 -0.916864 0 0 255
-16.0497 -10.9894 0.242492 0 0 255
-15.4074 -11.5619 -1.0776 0 0 255
-18.487 -10.306 -0.92476 0 0 255
-16.5338 -10.9938 -1.95096 0 0 255
-16.5447 -11.0195 -1.90464 0 0 255
-14.5555 -12.1618 -3.36641 0 0 255
-16.5084 -10.7372 -0.417346 0 0 255
-16.6191 -10.938 -0.921259 0 0 255
-16.5906 -11.0017 -1.11765 0 0 255
-15.9078 -10.9795 -2.18461 0 0 255
-17.05 -10.7937 -1.79124 0 0 255
-16.6221 -10.945 -1.03788 0 0 255
-15.8691 -11.008 -1.70759 0 0 255
-16.2852 -11.0374 -0.308541 0 0 255
-17.9949 -10.5709 -2.12374 0 0 255
-16.1016 -11.0761 -1.21253 0 0 255
-16.5461 -11.0848 -0.661182 0 0 255
-15.5653 -11.2476 -1.97366 0 0 255
-21.7585 -9.56376 1.146 0 0 255
-16.577 -11.0076 -0.914966 0 0 255
-15.8436 -11.165 -1.53171 0 0 255
-16.605 -11.009 -0.440245 0 0 255
-16.5419 -10.983 -1.35251 0 0 255
-21.6902 -9.80691 0.346793 0 0 255
-21.6937 -9.80868 -0.004021 0 0 255
-16.4524 -8.90565 1.14403 0 0 255
-21.6631 -9.83977 -1.80604 0 0 255
-21.6432 -9.84581 -4.17323 0 0 255
-19.8236 -10.4835 -0.516503 0 0 255
-19.8291 -10.4838 -1.8134 0 0 255
-20.2982 -10.3412 -3.16421 0 0 255
-16.582 -10.6937 0.3286 0 0 255
-16.9868 -10.723 -1.82749 0 0 255
-16.4204 -10.8277 -0.431558 0 0 255
-16.9216 -10.6776 -2.26142 0 0 255
-16.5187 -10.9199 -0.738347 0 0 255
-17.9785 -11.0899 -4.03536 0 0 255
-16.4456 -11.0428 -1.65645 0 0 255
-17.5716 -11.2139 -4.04067 0 0 255
-16.3632 -11.0633 -1.62424 0 0 255
-15.9885 -11.1819 -0.448524 0 0 255
-16.0549 -10.9468 -2.18853 0 0 255
-15.9267 -10.9854 -2.19814 0 0 255
-15.9245 -10.9893 -2.22341 0 0 255
-15.8957 -10.9944 -2.23633 0 0 255
-15.9821 -11.0244 -3.4501 0 0 255
-15.4682 -11.5514 -0.79465 0 0 255
-16.0886 -11.6652 -3.58613 0 0 255
-15.557 -11.8194 -3.15767 0 0 255
-15.3275 -11.9095 -3.5063 0 0 255
-21.6955 -9.80162 1.13271 0 0 255
-21.6653 -9.8287 0.060092 0 0 255
-21.6649 -9.84687 -1.75846 0 0 255
-20.0459 -10.3855 0.24524 0 0 255
-20.0293 -10.4079 0.292808 0 0 255
-19.9933 -10.4164 0.057513 0 0 255
-20.1317 -10.3956 -0.944974 0 0 255
-19.9334 -10.4521 -1.03582 0 0 255
-18.1993 -10.1728 0.382107 0 0 255
-18.7251 -10.8401 -1.81563 0 0 255
-18.5605 -10.8865 -2.82833 0 0 255
-18.5221 -10.8985 -2.8008 0 0 255
-16.3305 -10.7682 0.501937 0 0 255
-16.4213 -10.8495 -0.382625 0 0 255
-16.9836 -10.7062 -3.50232 0 0 255
-16.1596 -11.1294 -0.197189 0 0 255
-16.1782 -11.1261 -0.453315 0 0 255
-17.6607 -11.1853 -4.0791 0 0 255
-16.5116 -10.8174 -2.9928 0 0 255
-16.1768 -11.121 -1.00377 0 0 255
-16.0865 -11.1426 -0.716133 0 0 255
-15.9965 -11.1785 -0.574282 0 0 255
-16.2849 -10.8576 -2.97824 0 0 255
-16.0046 -11.0125 -3.49029 0 0 255
-15.6394 -11.4951 -0.825952 0 0 255
-21.7672 -9.67638 1.35407 0 0 255
-21.703 -9.77027 1.11287 0 0 255
-20.4645 -10.2831 -1.01275 0 0 255
-17.8149 -10.3087 0.382086 0 0 255
-18.5336 -10.3196 -0.947928 0 0 255
-18.1966 -10.6772 -0.309098 0 0 255
-19.8114 -10.503 -4.2173 0 0 255
-17.2464 -10.7889 -0.371091 0 0 255
-17.1955 -10.803 -0.323212 0 0 255
-17.1147 -10.8329 -0.241899 0 0 255
-17.0822 -10.8451 -0.972698 0 0 255
-15.9947 -11.185 -0.053006 0 0 255
-15.9674 -11.1896 -0.021493 0 0 255
-15.9746 -11.1978 -0.048291 0 0 255
-15.5579 -11.5204 -0.810507 0 0 255
-15.1831 -11.338 -2.18044 0 0 255
-14.9978 -12.0117 -3.48842 0 0 255
-21.6872 -9.80966 0.182392 0 0 255
-18.4778 -10.3283 -0.929437 0 0 255
-17.7502 -10.7848 -1.15307 0 0 255
-17.0914 -10.8482 -0.477128 0 0 255
-16.9376 -10.8819 -1.53937 0 0 255
-18.1872 -11.0107 -3.93081 0 0 255
-18.1418 -11.0292 -3.93695 0 0 255
-16.3991 -10.9628 -0.323431 0 0 255
-16.0939 -11.1572 -0.261464 0 0 255
-16.0304 -11.1594 -0.776877 0 0 255
-15.9662 -11.1972 -0.611992 0 0 255
-15.8434 -11.2559 -2.27114 0 0 255
-15.5557 -11.5232 -0.889891 0 0 255
-15.3979 -11.3836 -1.89437 0 0 255
-19.5831 -10.5552 -0.271342 0 0 255
-17.8931 -10.2395 0.617977 0 0 255
-18.5609 -10.8924 -2.77008 0 0 255
-17.0592 -10.8023 -1.66318 0 0 255
-16.1666 -10.905 -2.2341 0 0 255
-15.9924 -11.1604 -0.986207 0 0 255
-15.8608 -11.0899 -1.81311 0 0 255
-15.1799 -11.9455 -1.62971 0 0 255
-14.4853 -12.1653 -3.29804 0 0 255
-19.9996 -10.3949 0.433224 0 0 255
-17.6415 -10.6701 -2.62801 0 0 255
-15.9677 -10.9718 -2.16177 0 0 255
-16.8164 -10.9313 -1.72678 0 0 255
-16.2065 -11.1213 -1.43017 0 0 255
-16.6423 -10.8782 -0.868373 0 0 255
-16.5207 -11.0996 -0.896842 0 0 255
-16.5544 -11.1055 -0.692311 0 0 255
-15.5783 -11.3244 -2.17836 0 0 255
-15.4006 -11.3944 -1.6162 0 0 255
-16.5377 -10.9195 -1.35845 0 0 255
-15.1519 -11.4735 -1.52713 0 0 255
-21.6652 -9.83291 0.099693 0 0 255
-20.1908 -10.3519 0.145645 0 0 255
-18.1883 -10.1668 0.373861 0 0 255
-18.1812 -10.194 0.398011 0 0 255
-16.9751 -10.4479 0.675824 0 0 255
-19.385 -10.6293 -1.26882 0 0 255
-16.5488 -10.704 0.350968 0 0 255
-17.2372 -10.7998 -0.226559 0 0 255
-17.1966 -10.8165 -0.205559 0 0 255
-21.6429 -9.84867 -4.17382 0 0 255
-17.2094 -10.8069 -0.331069 0 0 255
-17.04 -10.861 -0.197327 0 0 255
-17.298 -10.782 -0.461969 0 0 255
-17.8323 -10.8195 -0.832904 0 0 255
-17.7838 -10.7653 -1.16672 0 0 255
-17.2941 -10.7771 -0.975831 0 0 255
-19.7777 -10.5231 -2.92213 0 0 255
-17.2168 -10.7753 -1.03523 0 0 255
-17.1947 -10.7812 -1.01611 0 0 255
-19.7672 -10.5131 -3.09325 0 0 255
-16.2756 -10.9656 -0.254174 0 0 255
-20.6771 -10.2336 -4.25099 0 0 255
-17.2631 -10.7208 -1.38055 0 0 255
-20.3326 -10.352 -4.02742 0 0 255
-20.2728 -10.3671 -3.98472 0 0 255
-16.1229 -11.145 -0.229777 0 0 255
-16.0755 -11.1595 -0.206524 0 0 255
-15.9229 -11.208 -0.197128 0 0 255
-16.002 -11.1856 -0.457689 0 0 255
-17.005 -10.6803 -2.04109 0 0 255
-17.0645 -10.6457 -2.22839 0 0 255
-15.798 -11.45 -0.400268 0 0 255
-17.0334 -10.648 -2.25026 0 0 255
-16.9611 -10.8769 -2.03237 0 0 255
-15.9303 -11.1966 -1.00045 0 0 255
-16.4808 -11.0334 -1.68274 0 0 255
-16.4309 -11.0444 -1.69456 0 0 255
-19.1795 -10.7162 -4.41432 0 0 255
-18.2561 -10.8905 -4.22351 0 0 255
-17.0803 -10.6547 -3.51154 0 0 255
-17.0648 -10.6862 -3.46818 0 0 255
-17.9758 -11.0843 -4.03251 0 0 255
-16.9888 -10.692 -3.53226 0 0 255
-15.231 -11.2583 -2.158 0 0 255
-16.0293 -11.6873 -3.52526 0 0 255
-15.5487 -11.8518 -3.73467 0 0 255
-14.9632 -12.0175 -3.43258 0 0 255
-14.8045 -12.0673 -3.55208 0 0 255
-20.0457 -10.3871 0.247667 0 0 255
-20.1331 -10.3605 0.166816 0 0 255
-20.0845 -10.3805 0.188223 0 0 255
-20.0789 -10.3776 0.0034 0 0 255
-18.6261 -10.3759 -0.035069 0 0 255
-19.8245 -10.4985 -1.85936 0 0 255
-17.1999 -10.8099 -0.044673 0 0 255
-19.4918 -10.6164 -1.64135 0 0 255
-17.2281 -10.8041 -0.087677 0 0 255
-17.2783 -10.7898 -0.182659 0 0 255
-17.0949 -10.8558 -0.042897 0 0 255
-17.1586 -10.8164 -0.2464 0 0 255
-16.9809 -10.8745 -0.156387 0 0 255
-16.4147 -10.8104 -0.312283 0 0 255
-16.4154 -10.8024 -0.342393 0 0 255
-17.8307 -10.4565 -2.18789 0 0 255
-16.0118 -11.177 -0.236604 0 0 255
-19.0055 -10.7463 -2.89399 0 0 255
-16.5764 -11.0449 -0.971747 0 0 255
-17.0671 -10.6414 -2.17767 0 0 255
-17.0167 -10.7579 -2.07723 0 0 255
-16.2208 -11.0916 -1.38664 0 0 255
-15.4646 -11.5575 -0.951577 0 0 255
-16.0462 -10.9602 -2.23439 0 0 255
-15.825 -11.0006 -2.21206 0 0 255
-17.5876 -11.2229 -4.04951 0 0 255
-15.1385 -11.971 -2.25899 0 0 255
-16.081 -11.6676 -3.60121 0 0 255
-15.2622 -11.9135 -2.81679 0 0 255
-15.1184 -11.9658 -2.74776 0 0 255
-15.1463 -11.9558 -3.02433 0 0 255
-15.2781 -11.919 -3.22216 0 0 255
-14.7546 -12.0793 -2.73095 0 0 255
-14.9673 -12.0214 -3.46678 0 0 255
-18.6908 -10.0294 0.607609 0 0 255
-20.0982 -10.3743 0.240819 0 0 255
-18.6762 -10.029 0.385547 0 0 255
-20.2191 -10.3664 -0.680854 0 0 255
-17.4575 -10.5798 0.247937 0 0 255
-20.4745 -10.2636 -1.81674 0 0 255
-16.0976 -10.8525 0.363889 0 0 255
-17.0772 -10.8503 -0.510998 0 0 255
-17.2784 -10.7852 -0.709045 0 0 255
-16.1149 -11.1512 -0.18028 0 0 255
-15.9904 -11.1878 -0.189885 0 0 255
-16.0372 -11.1699 -0.556176 0 0 255
-15.9465 -11.2008 -0.696916 0 0 255
-15.7695 -11.4548 -0.401487 0 0 255
-16.9617 -10.6515 -2.21374 0 0 255
-19.0204 -10.7579 -3.78813 0 0 255
-16.9281 -10.8887 -1.98704 0 0 255
-16.2093 -11.1086 -1.40868 0 0 255
-18.4572 -10.9286 -4.05515 0 0 255
-18.4146 -10.9499 -4.06459 0 0 255
-15.9576 -10.9896 -2.14513 0 0 255
-15.9761 -10.9657 -2.20714 0 0 255
-16.4263 -10.8149 -3.05816 0 0 255
-14.7833 -12.0824 -3.2084 0 0 255
-15.0343 -11.9902 -3.60529 0 0 255
-20.8215 -10.1566 0.62491 0 0 255
-19.7611 -10.5422 -0.300775 0 0 255
-18.6208 -10.4015 -0.50801 0 0 255
-17.8705 -10.777 -0.218565 0 0 255
-16.4188 -10.885 -0.324789 0 0 255
-17.1979 -10.7863 -1.00103 0 0 255
-16.0609 -11.165 -0.321931 0 0 255
-15.5788 -11.5312 -1.04842 0 0 255
-15.8014 -11.4433 -1.48147 0 0 255
-16.3936 -10.8023 -2.99473 0 0 255
-18.1395 -10.1957 0.43575 0 0 255
-16.883 -10.9041 -1.43583 0 0 255
-16.8872 -10.9654 -1.48621 0 0 255
-17.0457 -10.7061 -2.09397 0 0 255
-16.0804 -11.1355 -0.996987 0 0 255
-15.2688 -11.9126 -1.64787 0 0 255
-14.9301 -12.0332 -3.53172 0 0 255
-16.5733 -11.047 -1.02127 0 0 255
-16.7225 -10.9701 -1.27374 0 0 255
-16.6162 -10.9847 -1.29379 0 0 255
-14.5076 -12.1573 -3.3941 0 0 255
-16.3015 -11.1432 -0.342711 0 0 255
-16.0545 -10.9448 -2.1371 0 0 255
-18.547 -10.4237 -1.02565 0 0 255
-16.8963 -10.9112 -0.861565 0 0 255
-16.5668 -11.01 -1.75613 0 0 255
-16.195 -10.9355 -2.17524 0 0 255
-16.552 -10.6755 -0.529372 0 0 255
-16.4424 -11.0732 -0.380451 0 0 255
-16.1025 -11.1849 -1.2918 0 0 255
-15.7764 -11.1952 -2.41446 0 0 255
-16.5976 -8.85334 0.916778 0 0 255
-20.1203 -10.3626 0.205369 0 0 255
-19.8642 -10.467 -0.011543 0 0 255
-16.7067 -10.6631 0.517048 0 0 255
-15.9038 -10.9188 0.420911 0 0 255
-20.6661 -10.2254 -1.08732 0 0 255
-19.5058 -10.597 -0.674744 0 0 255
-20.5849 -10.2388 -1.07621 0 0 255
-16.6503 -10.8186 -0.17439 0 0 255
-17.2961 -10.779 -0.464204 0 0 255
-20.3971 -10.3062 -1.58467 0 0 255
-16.4671 -10.7359 -0.365294 0 0 255
-19.3879 -10.6335 -1.28192 0 0 255
-19.3727 -10.6397 -1.3197 0 0 255
-16.4192 -10.8515 -0.372585 0 0 255
-15.9257 -11.2091 -0.201635 0 0 255
-15.9485 -11.1977 -0.224171 0 0 255
-16.1784 -11.1261 -0.460086 0 0 255
-15.9961 -11.1786 -0.580005 0 0 255
-19.0557 -10.7391 -2.17728 0 0 255
-19.7987 -10.5093 -2.91335 0 0 255
-15.5035 -11.5302 -0.867174 0 0 255
-16.947 -10.8788 -1.68998 0 0 255
-16.3967 -11.0559 -1.63462 0 0 255
-16.4568 -11.0342 -1.68734 0 0 255
-17.1053 -10.6121 -2.19255 0 0 255
-20.3622 -10.3364 -4.0616 0 0 255
-20.1949 -10.3917 -4.28063 0 0 255
-19.2054 -10.6946 -3.76032 0 0 255
-20.1592 -10.3999 -4.34263 0 0 255
-15.8967 -10.9939 -2.24786 0 0 255
-19.3565 -10.6335 -4.20128 0 0 255
-15.2117 -11.2478 -2.16939 0 0 255
-16.0357 -11.1092 -3.22045 0 0 255
