-17.2117 -10.8101 -0.629129 0 0 255
-17.0793 -10.8452 -0.958591 0 0 255
-16.6237 -10.9831 -1.27267 0 0 255
-16.4027 -10.8816 -0.351828 0 0 255
-16.4317 -10.7414 0.308385 0 0 255
-15.9977 -11.1902 -0.621624 0 0 255
-20.2179 -10.3446 0.121614 0 0 255
-18.7411 -10.0064 0.593202 0 0 255
-17.075 -10.6247 -2.25212 0 0 255
-16.9555 -10.901 -0.231231 0 0 255
-16.5489 -11.0228 -1.31599 0 0 255
-18.7397 -10.834 -1.75406 0 0 255
-17.8602 -10.6848 -1.65075 0 0 255
-15.6878 -11.4761 -0.554688 0 0 255
-16.8564 -11.0428 -0.559133 0 0 255
-20.7651 -10.1805 -2.28508 0 0 255
-20.2482 -10.3333 0.224303 0 0 255
-20.2968 -10.3415 -3.15889 0 0 255
-20.1256 -10.3938 -0.947215 0 0 255
-18.7271 -10.8399 -1.80094 0 0 255
-18.5629 -10.9013 -2.56052 0 0 255
-17.8219 -10.6288 -1.91626 0 0 255
-17.8644 -10.8125 -0.783393 0 0 255
-17.0459 -10.6585 0.248936 0 0 255
-17.0571 -10.8615 -0.728806 0 0 255
-16.9594 -10.8871 -0.191804 0 0 255
-16.7783 -10.7045 -2.97424 0 0 255
-16.666 -10.8066 -0.181516 0 0 255
-16.2889 -11.0856 -1.51375 0 0 255
-16.0071 -10.969 -2.1621 0 0 255
-15.9746 -10.9497 -2.20119 0 0 255
-20.2186 -10.3434 0.242299 0 0 255
-20.1807 -10.3718 -2.75779 0 0 255
-19.4237 -10.6028 -0.816658 0 0 255
-17.8279 -10.4882 -2.16034 0 0 255
-15.5587 -11.5226 -0.893213 0 0 255
-14.9449 -12.0166 -2.49891 0 0 255
-20.2168 -10.3453 0.087364 0 0 255
-17.6076 -9.05922 1.43357 0 0 255
-17.2245 -10.6337 -2.56971 0 0 255
-15.7435 -11.4603 -0.86619 0 0 255
-20.5369 -10.2669 -1.1673 0 0 255
-19.9142 -10.435 0.759381 0 0 255
-19.9052 -10.4691 -1.15276 0 0 255
-19.2653 -10.6545 -0.405386 0 0 255
-18.4793 -10.3388 -0.904585 0 0 255
-16.6592 -11.0065 -1.15233 0 0 255
-16.4513 -11.0979 -0.819831 0 0 255
-18.5572 -10.8929 -2.75231 0 0 255
-16.6559 -11.0562 -0.739358 0 0 255
-20.1142 -10.3853 -0.937244 0 0 255
-19.371 -10.6394 -1.31446 0 0 255
-18.523 -10.2359 -0.876874 0 0 255
-17.8677 -10.8144 -0.784985 0 0 255
-17.2772 -10.7893 -0.187866 0 0 255
-18.5756 -10.901 -2.83574 0 0 255
-17.192 -10.819 -0.197662 0 0 255
-17.1122 -10.8412 -0.049146 0 0 255
-17.281 -10.7895 -0.713957 0 0 255
-17.2135 -10.8139 -0.577629 0 0 255
-18.3158 -10.9816 -2.92162 0 0 255
-17.1143 -10.8354 -0.722334 0 0 255
-16.3342 -10.7754 0.505487 0 0 255
-16.9653 -10.8765 -2.03253 0 0 255
-16.0709 -11.1631 -0.199364 0 0 255
-16.3375 -11.0773 -1.61844 0 0 255
-15.8221 -11.4453 -0.387385 0 0 255
-16.0013 -10.9648 -2.15248 0 0 255
-18.6993 -10.0279 0.378736 0 0 255
-17.2076 -10.8161 -0.186398 0 0 255
-17.2974 -10.7831 -0.455709 0 0 255
-17.2095 -10.8105 -0.714213 0 0 255
-16.9097 -10.7084 -2.25121 0 0 255
-16.1603 -11.1346 -0.195932 0 0 255
-15.9934 -11.1887 -0.051879 0 0 255
-16.071 -11.1578 -0.718889 0 0 255
-16.0873 -11.1555 -0.836353 0 0 255
-16.2806 -11.0889 -1.54657 0 0 255
-15.9139 -11.2106 -0.495058 0 0 255
-15.7803 -11.4498 -0.412865 0 0 255
-19.8104 -10.4995 -1.84102 0 0 255
-18.9533 -10.7673 -2.86608 0 0 255
-17.1635 -10.8245 -0.018988 0 0 255
-17.2472 -10.7949 -0.370357 0 0 255
-17.0911 -10.8471 -0.469606 0 0 255
-16.4031 -10.8842 -0.34398 0 0 255
-16.177 -11.1275 -0.491221 0 0 255
-16.1717 -11.1188 -1.00196 0 0 255
-14.968 -12.0145 -2.09007 0 0 255
-16.4259 -10.78 -0.327662 0 0 255
-16.9393 -10.8845 -1.54647 0 0 255
-16.138 -11.1403 -0.438124 0 0 255
-16.0065 -10.965 -2.17495 0 0 255
-17.2168 -10.6131 -2.13015 0 0 255
-16.5584 -11.0458 -1.04617 0 0 255
-15.604 -11.4732 -0.420271 0 0 255
-16.436 -11.0883 -0.887429 0 0 255
-16.4004 -11.0792 -0.836224 0 0 255
-15.8911 -8.64831 1.68695 0 0 255
-20.5526 -10.2581 -1.27447 0 0 255
-20.1165 -10.4097 -2.57929 0 0 255
-17.2021 -10.6004 -2.23059 0 0 255
-16.9615 -10.8781 -2.03257 0 0 255
-16.3823 -11.0625 -1.62584 0 0 255
-15.474 -11.8511 -3.32687 0 0 255
-20.6506 -10.2272 0.129503 0 0 255
-19.4917 -10.6137 -1.64325 0 0 255
-17.8699 -10.8072 -0.785778 0 0 255
-17.206 -10.8103 -0.189777 0 0 255
-17.7014 -10.86 -0.787243 0 0 255
-17.2095 -10.8083 -0.716669 0 0 255
-16.6687 -10.8096 -0.180169 0 0 255
-19.0034 -10.7445 -2.89217 0 0 255
-16.2762 -10.9836 -0.251238 0 0 255
-16.0889 -11.1569 -0.192945 0 0 255
-16.0094 -11.1805 -0.094146 0 0 255
-15.9808 -11.2033 -0.054925 0 0 255
-16.5471 -11.0586 -0.916454 0 0 255
-16.0806 -11.1596 -0.564712 0 0 255
-16.0874 -11.1441 -0.840647 0 0 255
-15.9934 -11.1699 -1.01032 0 0 255
-15.7439 -11.4606 -0.914969 0 0 255
-16.7656 -10.7085 -2.97248 0 0 255
-15.999 -10.9745 -2.15253 0 0 255
-15.1577 -11.958 -3.37032 0 0 255
-20.4572 -10.2668 0.921046 0 0 255
-20.463 -10.2904 -1.01558 0 0 255
-18.1483 -10.2119 0.53773 0 0 255
-18.1455 -10.21 0.35085 0 0 255
-18.3145 -10.3249 0.240957 0 0 255
-17.8018 -10.311 0.386823 0 0 255
-18.4825 -10.331 -0.973842 0 0 255
-17.8857 -10.802 -0.204806 0 0 255
-17.1009 -10.8452 -0.484711 0 0 255
-17.1525 -10.8224 -0.55557 0 0 255
-16.0727 -11.1656 -0.085243 0 0 255
-18.4331 -10.9316 -2.90755 0 0 255
-16.0314 -11.1534 -0.265554 0 0 255
-15.8716 -11.0734 -2.47373 0 0 255
-18.1201 -10.2289 0.363583 0 0 255
-19.5217 -10.591 -2.44778 0 0 255
-16.5986 -10.7001 0.315722 0 0 255
-16.0393 -11.1741 -0.115143 0 0 255
-17.0803 -10.5965 -2.24594 0 0 255
-17.7732 -10.2962 0.336399 0 0 255
-18.4935 -10.3053 -0.949386 0 0 255
-17.0286 -10.878 -0.22379 0 0 255
-16.6988 -10.8679 -0.813849 0 0 255
-16.5907 -11.054 -1.08811 0 0 255
-15.8345 -11.3979 -1.02894 0 0 255
-16.1662 -10.9195 -2.17192 0 0 255
-16.5929 -11.0169 -1.84836 0 0 255
-20.6745 -10.2002 0.921324 0 0 255
-16.0604 -9.02961 1.25361 0 0 255
-16.4761 -8.90444 0.934919 0 0 255
-18.2163 -10.1812 0.491079 0 0 255
-19.8173 -10.4922 -0.503261 0 0 255
-20.4442 -10.2987 -1.00065 0 0 255
-20.5276 -10.2651 -1.06488 0 0 255
-20.5568 -10.2577 -1.28147 0 0 255
-20.4131 -10.2975 -1.59166 0 0 255
-17.2093 -10.8101 -0.194552 0 0 255
-17.8354 -10.8222 -0.834463 0 0 255
-17.1286 -10.8467 -0.466663 0 0 255
-17.8786 -10.8124 -0.947656 0 0 255
-16.2818 -11.0551 -0.044338 0 0 255
-17.2112 -10.8064 -0.721911 0 0 255
-16.4766 -10.7905 -0.433423 0 0 255
-17.0437 -10.8601 -0.725154 0 0 255
-15.9951 -11.1886 -0.062366 0 0 255
-19.1643 -10.7049 -2.19234 0 0 255
-16.0041 -11.1743 -0.228474 0 0 255
-15.9577 -11.2 -0.232222 0 0 255
-19.5832 -10.5826 -2.86949 0 0 255
-19.4752 -10.6028 -2.87948 0 0 255
-16.0355 -11.159 -0.763741 0 0 255
-15.9227 -11.2047 -0.719508 0 0 255
-15.9604 -11.1958 -0.754278 0 0 255
-19.3679 -10.6385 -3.20219 0 0 255
-16.9476 -10.8803 -1.69063 0 0 255
-18.5318 -10.8978 -2.8935 0 0 255
-17.2064 -10.6069 -2.2364 0 0 255
-16.854 -10.8831 -1.91765 0 0 255
-17.1048 -10.6127 -2.1915 0 0 255
-16.9568 -10.8803 -2.03021 0 0 255
-16.3903 -11.058 -1.63247 0 0 255
-17.0309 -10.6439 -2.24534 0 0 255
-17.7124 -10.4272 -2.86865 0 0 255
-16.3941 -11.0473 -1.96564 0 0 255
-15.7716 -11.2393 -2.51296 0 0 255
-20.0957 -10.3824 0.007306 0 0 255
-16.3357 -10.7674 0.360809 0 0 255
-16.6781 -10.8054 -0.18603 0 0 255
-15.9558 -11.1995 -0.039453 0 0 255
-17.1266 -10.8261 -0.9798 0 0 255
-16.3711 -11.1134 -0.45965 0 0 255
-19.0632 -10.7359 -2.41069 0 0 255
-16.0018 -11.1751 -0.975918 0 0 255
-15.9731 -11.1633 -1.03648 0 0 255
-18.4193 -10.9359 -3.05879 0 0 255
-15.8017 -11.4378 -1.82804 0 0 255
-15.9706 -11.0036 -2.10538 0 0 255
-15.0772 -11.9807 -2.46449 0 0 255
-15.1181 -11.964 -2.92458 0 0 255
-15.1314 -11.9606 -3.10932 0 0 255
-20.3839 -10.3173 0.916085 0 0 255
-19.9645 -10.4304 0.403538 0 0 255
-18.2739 -10.1621 0.379318 0 0 255
-18.5121 -10.2511 -0.853414 0 0 255
-20.5672 -10.2624 -1.89137 0 0 255
-17.197 -10.8192 -0.082207 0 0 255
-16.0747 -11.1692 -0.039417 0 0 255
-16.0773 -11.1646 -0.560143 0 0 255
-16.0374 -11.1712 -0.558935 0 0 255
-16.0053 -11.1704 -1.00565 0 0 255
-16.0229 -11.1578 -1.07805 0 0 255
-15.7505 -11.4617 -0.925994 0 0 255
-17.0335 -10.6883 -2.03374 0 0 255
-18.4176 -10.9376 -2.907 0 0 255
-18.3896 -10.9416 -2.92628 0 0 255
-18.3012 -10.9659 -2.99548 0 0 255
-16.3687 -11.075 -1.82138 0 0 255
-17.5499 -10.3926 0.368135 0 0 255
-16.0799 -10.8542 0.421002 0 0 255
-16.0911 -11.1475 -0.377624 0 0 255
-15.7033 -11.4727 -0.31253 0 0 255
-16.0405 -10.936 -2.26743 0 0 255
-18.3882 -10.1269 0.37861 0 0 255
-17.4912 -10.4072 0.454646 0 0 255
-18.0222 -10.7558 -0.316905 0 0 255
-17.9157 -10.8613 -0.370261 0 0 255
-16.8747 -8.72597 1.41075 0 0 255
-17.8091 -10.3193 0.331776 0 0 255
-16.653 -10.6277 0.603671 0 0 255
-16.6189 -11.005 -1.79716 0 0 255
-15.5983 -11.5195 -1.03191 0 0 255
-16.2983 -10.9153 -0.165829 0 0 255
-17.0662 -10.6851 -1.9526 0 0 255
-15.1851 -11.4687 -1.39944 0 0 255
-16.4107 -11.0875 -0.698633 0 0 255
-16.8624 -10.7789 -0.921929 0 0 255
-15.4441 -11.4007 -1.65977 0 0 255
-15.5706 -11.5278 -0.733593 0 0 255
-16.8039 -8.80264 1.27228 0 0 255
-15.8568 -9.09768 1.16663 0 0 255
-19.8168 -10.4704 0.670305 0 0 255
-19.8985 -10.4784 0.164335 0 0 255
-17.4614 -10.4178 0.512154 0 0 255
-19.8822 -10.4712 -0.279058 0 0 255
-16.354 -10.776 0.487476 0 0 255
-16.3046 -10.7916 0.351361 0 0 255
-19.8578 -10.4731 -0.656102 0 0 255
-20.4857 -10.2646 -1.01276 0 0 255
-20.1387 -10.3974 -0.977244 0 0 255
-19.9238 -10.4646 -1.02165 0 0 255
-16.2411 -10.996 -0.195429 0 0 255
-16.4744 -10.7992 -0.428202 0 0 255
-17.042 -10.8553 -0.726046 0 0 255
-20.5941 -10.2411 -1.88048 0 0 255
-16.0894 -11.1514 -0.572757 0 0 255
-19.888 -10.4777 -1.86262 0 0 255
-18.624 -10.8648 -1.58517 0 0 255
-20.2468 -10.3489 -2.19602 0 0 255
-19.1332 -10.7134 -1.88993 0 0 255
-20.3599 -10.3462 -2.41013 0 0 255
-15.9637 -11.1886 -0.98796 0 0 255
-19.9571 -10.4533 -2.43759 0 0 255
-16.6463 -10.9586 -1.2952 0 0 255
-18.6605 -10.8621 -2.12024 0 0 255
-18.9013 -10.7879 -2.37448 0 0 255
-19.2725 -10.6683 -2.5239 0 0 255
-19.208 -10.6897 -2.52522 0 0 255
-19.8021 -10.5104 -2.91315 0 0 255
-17.8462 -10.4807 -2.19195 0 0 255
-15.5822 -11.5061 -1.33711 0 0 255
-19.4477 -10.6266 -2.89023 0 0 255
-16.9524 -10.8794 -2.02626 0 0 255
-17.1046 -10.6102 -2.19436 0 0 255
-18.7986 -10.8165 -2.87459 0 0 255
-16.3952 -11.0463 -1.96728 0 0 255
-18.6473 -10.857 -2.90747 0 0 255
-18.5808 -10.9013 -2.89352 0 0 255
-18.4946 -10.9168 -2.86816 0 0 255
-18.4799 -10.9204 -2.96729 0 0 255
-19.0431 -10.7521 -3.21378 0 0 255
-18.2667 -11.006 -2.924 0 0 255
-16.0575 -10.958 -2.16305 0 0 255
-16.0434 -10.9505 -2.23816 0 0 255
-16.0127 -10.9445 -2.25661 0 0 255
-18.4761 -10.9232 -3.42759 0 0 255
-16.2336 -10.9422 -2.55988 0 0 255
-15.8085 -11.2287 -2.54928 0 0 255
-14.8376 -12.0638 -2.40464 0 0 255
-15.1598 -11.9614 -2.93911 0 0 255
-20.4008 -10.2948 0.928501 0 0 255
-20.1752 -10.3513 0.899002 0 0 255
-20.0696 -10.3946 0.922442 0 0 255
-19.8994 -10.4677 0.462182 0 0 255
-19.9012 -10.4574 -0.527395 0 0 255
-20.361 -10.3264 -0.991188 0 0 255
-16.9415 -10.9072 -0.172667 0 0 255
-16.6505 -10.8123 -0.189114 0 0 255
-16.2776 -10.9676 -0.252104 0 0 255
-16.0645 -11.1675 -0.339243 0 0 255
-15.9694 -11.1913 -0.725551 0 0 255
-20.3592 -10.3389 -2.48244 0 0 255
-20.4309 -10.2843 -2.51232 0 0 255
-20.366 -10.3157 -2.50275 0 0 255
-16.7639 -10.9566 -1.65728 0 0 255
-19.3666 -10.637 -3.20455 0 0 255
-18.4281 -10.9131 -2.92241 0 0 255
-15.9401 -11.0203 -2.07552 0 0 255
-15.9731 -10.9978 -2.09851 0 0 255
-15.1418 -11.9538 -1.85854 0 0 255
-15.1601 -11.9532 -1.88212 0 0 255
-15.1707 -11.9391 -3.05759 0 0 255
-16.8696 -8.75103 1.39844 0 0 255
-19.4339 -10.6031 -0.258885 0 0 255
-16.0586 -10.8648 0.390236 0 0 255
-18.4937 -10.3325 -0.914244 0 0 255
-16.4448 -10.753 -0.323602 0 0 255
-16.4264 -10.8296 -0.379886 0 0 255
-16.0139 -11.1554 -0.757045 0 0 255
-15.4802 -11.4934 -1.22957 0 0 255
-17.0369 -10.6996 -2.07968 0 0 255
-17.2266 -10.5943 -2.20624 0 0 255
-16.9418 -10.6664 -2.23246 0 0 255
-16.5931 -10.9169 -2.09503 0 0 255
-15.9983 -11.0033 -2.07286 0 0 255
-15.9368 -10.8496 -2.96118 0 0 255
-15.8969 -8.78345 1.67342 0 0 255
-16.5227 -10.7137 -0.26397 0 0 255
-17.1594 -10.8096 -0.986166 0 0 255
-15.5235 -11.5305 -1.35876 0 0 255
-17.0554 -10.671 -2.11169 0 0 255
-17.2145 -10.6053 -2.28686 0 0 255
-17.1147 -10.602 -2.26055 0 0 255
-16.8922 -10.7186 -2.21835 0 0 255
-18.3424 -10.956 -2.90374 0 0 255
-16.0096 -10.973 -2.15059 0 0 255
-15.6796 -10.978 -2.80969 0 0 255
-19.4641 -10.6071 -0.524254 0 0 255
-16.5457 -11.0879 -1.03391 0 0 255
-15.9201 -11.0777 -2.11349 0 0 255
-15.9408 -11.0489 -2.48099 0 0 255
-15.6235 -10.9739 -2.86758 0 0 255
-15.1465 -11.9542 -2.80998 0 0 255
-15.1164 -11.9767 -2.92622 0 0 255
-19.5067 -10.5895 -0.311836 0 0 255
-15.6691 -11.481 -0.376331 0 0 255
-17.7402 -10.8319 -1.26627 0 0 255
-16.117 -11.1156 -1.07896 0 0 255
-16.262 -10.9215 -2.25507 0 0 255
-15.1865 -11.9708 -3.27524 0 0 255
-16.6065 -10.9291 -0.779864 0 0 255
-16.4291 -11.0798 -0.688888 0 0 255
-16.317 -11.0718 -1.2358 0 0 255
-16.4618 -11.0606 -1.77102 0 0 255
-16.9248 -10.8296 -1.67755 0 0 255
-15.1405 -11.959 -2.94305 0 0 255
-19.3097 -10.605 -3.1879 0 0 255
-20.279 -10.3621 -3.19214 0 0 255
-15.1131 -11.9824 -2.56196 0 0 255
-18.8095 -10.8472 -2.87097 0 0 255
-20.2519 -10.4192 -2.92419 0 0 255
-15.9574 -10.9595 -2.24552 0 0 255
-20.168 -10.3879 -2.721 0 0 255
-15.9695 -10.9927 -2.0959 0 0 255
-20.4007 -10.273 -2.52668 0 0 255
-19.365 -10.6469 -2.2036 0 0 255
-16.666 -10.9661 -1.84887 0 0 255
-16.5987 -10.984 -1.8481 0 0 255
-17.818 -10.6769 -1.64889 0 0 255
-18.6152 -10.8667 -1.56888 0 0 255
-16.6434 -10.9338 -1.29412 0 0 255
-20.4472 -10.3109 -1.57135 0 0 255
-16.69 -10.9883 -1.28876 0 0 255
-17.7867 -10.8467 -1.33388 0 0 255
-19.2741 -10.6697 -1.33029 0 0 255
-19.3138 -10.6357 -1.31685 0 0 255
-18.9622 -10.7588 -1.29673 0 0 255
-19.6018 -10.5707 -1.31258 0 0 255
-16.0966 -11.1278 -1.01561 0 0 255
-16.0534 -11.1646 -0.99316 0 0 255
-17.2428 -10.7696 -1.03728 0 0 255
-17.213 -10.7853 -1.01613 0 0 255
-18.6231 -10.3209 -0.961338 0 0 255
-17.7488 -10.8568 -0.95178 0 0 255
-20.2199 -10.3426 -0.990174 0 0 255
-17.8191 -10.8285 -0.841667 0 0 255
-19.8756 -10.4766 -0.877043 0 0 255
-20.2086 -10.3759 -0.873539 0 0 255
-17.8181 -10.8367 -0.648189 0 0 255
-17.6992 -10.8301 -0.393699 0 0 255
-20.2742 -10.3581 -0.292096 0 0 255
-19.8195 -10.4949 -0.268261 0 0 255
-19.3216 -10.6359 -0.145934 0 0 255
-18.4822 -10.4253 -0.116883 0 0 255
-18.5969 -10.3845 -0.05664 0 0 255
-20.1274 -10.3602 -0.010512 0 0 255
-20.0091 -10.4191 0.281706 0 0 255
-17.76 -10.335 0.373585 0 0 255
-15.8884 -10.9151 0.386423 0 0 255
-16.5189 -10.7303 0.421146 0 0 255
-18.0771 -10.2254 0.481951 0 0 255
-16.1884 -10.7486 -2.79906 0 0 255
-18.6952 -10.8603 -3.24918 0 0 255
-18.7264 -10.9047 -2.88213 0 0 255
-17.4117 -10.6168 -2.25603 0 0 255
-16.9817 -10.6758 -1.98132 0 0 255
-16.8647 -10.9187 -1.81613 0 0 255
-20.398 -10.4065 -2.17558 0 0 255
-17.1196 -10.8231 -1.01768 0 0 255
-19.9129 -10.4697 -1.04098 0 0 255
-16.5387 -10.9679 -0.792872 0 0 255
-15.6164 -11.4957 -0.780854 0 0 255
-16.064 -11.1931 -0.546583 0 0 255
-20.2405 -10.3576 -0.643632 0 0 255
-18.0503 -10.7529 -0.430117 0 0 255
-17.6332 -10.8646 -0.389341 0 0 255
-16.5221 -10.7229 -0.287023 0 0 255
-16.3936 -10.8651 -0.28473 0 0 255
-19.4231 -10.6087 -0.253569 0 0 255
-16.9183 -10.8088 -0.144546 0 0 255
-20.1859 -10.3803 -0.073926 0 0 255
-18.4429 -10.359 0.087895 0 0 255
-20.3777 -10.3049 0.503167 0 0 255
-15.7047 -10.8687 -2.93293 0 0 255
-17.5309 -10.8722 -1.44954 0 0 255
-16.1744 -11.1311 -0.998592 0 0 255
-16.3993 -10.9005 -0.346992 0 0 255
-19.7906 -10.4896 0.493851 0 0 255
-17.4231 -10.3989 0.51242 0 0 255
-14.6862 -11.957 -2.68382 0 0 255
-19.5211 -10.5888 -0.883886 0 0 255
-17.1673 -10.8347 -0.558353 0 0 255
-17.819 -10.8117 -0.35098 0 0 255
-19.4961 -10.5877 -0.096617 0 0 255
-18.0768 -10.2416 0.336783 0 0 255
-17.3258 -10.4648 0.352501 0 0 255
-16.9405 -10.5849 0.352623 0 0 255
-20.0738 -10.2968 0.883308 0 0 255
-16.6803 -8.8285 0.916384 0 0 255
-15.982 -11.0353 -2.11214 0 0 255
-17.1217 -10.6899 -2.16827 0 0 255
-15.6259 -11.5108 -1.46121 0 0 255
-19.193 -10.8172 -1.31998 0 0 255
-18.6343 -10.3863 -0.664845 0 0 255
-19.6865 -10.5005 -0.651752 0 0 255
-18.1691 -10.7458 -0.463798 0 0 255
-19.6048 -10.5541 -0.372718 0 0 255
-18.5953 -10.3505 0.075922 0 0 255
-16.353 -10.7681 0.347159 0 0 255
-20.2951 -10.362 1.22268 0 0 255
-16.5645 -8.86106 1.14345 0 0 255
-15.9707 -11.0656 -2.08217 0 0 255
-16.5907 -10.9798 -1.02985 0 0 255
-16.3299 -10.9224 -0.249142 0 0 255
-16.581 -10.8583 -0.228418 0 0 255
-16.2132 -11.0571 -0.176248 0 0 255
-16.0484 -11.2231 -0.106853 0 0 255
-16.7236 -11.1448 -1.81408 0 0 255
-16.6528 -8.76354 1.48887 0 0 255
-16.549 -11.0212 -1.59056 0 0 255
-14.8596 -12.0509 -3.20418 0 0 255
-20.0948 -10.4056 -2.42028 0 0 255
-15.9629 -11.0264 -2.55502 0 0 255
-15.161 -11.9398 -2.88876 0 0 255
-14.8508 -12.0395 -2.78271 0 0 255
-14.9265 -12.0263 -2.42975 0 0 255
-16.5201 -11.0166 -1.85149 0 0 255
-17.8823 -10.6103 -1.49302 0 0 255
-16.2454 -11.0925 -1.68397 0 0 255
-17.2396 -10.7703 -1.03764 0 0 255
-17.876 -10.8072 -0.950119 0 0 255
-17.7502 -10.8574 -0.951629 0 0 255
-19.4493 -10.6044 -0.522554 0 0 255
-19.747 -10.4873 -0.03515 0 0 255
-16.4881 -10.7932 -0.426814 0 0 255
-17.2408 -10.8057 -0.168468 0 0 255
-20.066 -10.4043 0.479958 0 0 255
-19.8343 -10.4446 0.668208 0 0 255
-17.6659 -10.3623 0.363955 0 0 255
-20.2448 -10.3494 0.951762 0 0 255
-15.9428 -9.06956 1.13946 0 0 255
-15.9487 -9.07472 1.24661 0 0 255
-14.6016 -12.1774 -3.22819 0 0 255
-15.7472 -11.0584 -2.28834 0 0 255
-17.2584 -10.6174 -2.01266 0 0 255
-16.8555 -10.9199 -1.81545 0 0 255
-20.3236 -10.346 -0.990472 0 0 255
-19.4576 -10.6043 -0.719581 0 0 255
-15.4618 -11.5315 -1.23578 0 0 255
-19.4724 -10.5979 -0.298681 0 0 255
-16.6454 -10.8099 -0.183482 0 0 255
-20.3858 -10.3032 0.934383 0 0 255
-16.9788 -10.7248 -2.04133 0 0 255
-17.1766 -10.8112 -0.982096 0 0 255
-19.6392 -10.5453 -0.649256 0 0 255
-19.5122 -10.5857 -0.627338 0 0 255
-20.5061 -10.2075 0.94404 0 0 255
-16.1001 -10.8519 0.374018 0 0 255
-15.1539 -11.9388 -2.72938 0 0 255
-16.9716 -10.6857 -1.98623 0 0 255
-15.319 -11.398 -1.91652 0 0 255
-16.572 -10.9663 -1.31494 0 0 255
-19.358 -10.6253 -0.384959 0 0 255
-20.0959 -10.3806 -0.086214 0 0 255
-18.6414 -10.3648 0.039977 0 0 255
-17.7239 -10.8153 -1.45641 0 0 255
-18.3617 -10.1423 0.313941 0 0 255
-17.4793 -10.4833 0.292339 0 0 255
-16.5578 -10.7007 0.29454 0 0 255
-15.9849 -11.0781 -2.09186 0 0 255
-17.9376 -10.6295 -1.46267 0 0 255
-18.5894 -10.3724 -0.664615 0 0 255
-16.3393 -11.0419 -0.819407 0 0 255
-16.8769 -10.8977 -2.02628 0 0 255
-16.1754 -11.1818 -1.06468 0 0 255
-19.4696 -10.6018 -1.8313 0 0 255
-15.1524 -11.966 -2.94354 0 0 255
-16.0082 -10.9521 -2.21421 0 0 255
-18.5936 -10.8822 -1.58743 0 0 255
-14.9896 -11.9934 -2.45579 0 0 255
-20.2553 -10.3423 0.060198 0 0 255
-16.7629 -10.9633 -1.09801 0 0 255
-17.67 -10.8511 -0.459428 0 0 255
-18.3046 -10.1569 0.371266 0 0 255
-16.335 -10.7797 0.523447 0 0 255
-16.8842 -10.7121 -2.30568 0 0 255
-16.9039 -10.6827 -2.27201 0 0 255
-15.2012 -11.8826 -3.1953 0 0 255
-15.7907 -11.0068 -2.28279 0 0 255
-16.0374 -10.9768 -2.09866 0 0 255
-16.8438 -10.9193 -1.81649 0 0 255
-16.5152 -11.0262 -1.85852 0 0 255
-18.4725 -10.2833 -0.709357 0 0 255
-17.7891 -10.8149 -0.635516 0 0 255
-17.8339 -10.7782 -0.592139 0 0 255
-15.5221 -11.5092 -1.24158 0 0 255
-15.5111 -11.4867 -1.20666 0 0 255
-17.1945 -10.8235 -0.238909 0 0 255
-15.7571 -11.4716 -0.680456 0 0 255
-15.5357 -11.4995 -0.593206 0 0 255
-16.8506 -10.6091 0.504424 0 0 255
-16.4697 -8.90208 1.14752 0 0 255
-16.5741 -10.9911 -1.932 0 0 255
-18.4895 -10.2936 -0.809635 0 0 255
-15.7332 -11.4547 -1.45923 0 0 255
-16.0316 -11.178 -0.556218 0 0 255
-18.1298 -10.2129 0.509159 0 0 255
-15.5737 -11.51 -0.613181 0 0 255
-16.3002 -11.0751 -1.65941 0 0 255
-17.8157 -10.823 -1.04534 0 0 255
-15.8382 -10.937 0.387291 0 0 255
-16.4879 -11.0567 -1.76488 0 0 255
-18.5725 -10.2515 -0.661927 0 0 255
-17.7719 -10.8126 -0.359032 0 0 255
-17.74 -10.6227 -1.55815 0 0 255
-17.9722 -10.6002 -1.43708 0 0 255
-18.6094 -10.2795 0.131048 0 0 255
-20.2524 -10.3365 0.071194 0 0 255
-17.7848 -10.8001 -1.07106 0 0 255
-20.5013 -10.2513 0.901978 0 0 255
-19.804 -10.5311 0.467417 0 0 255
-18.586 -10.0585 0.399261 0 0 255
-18.5409 -10.07 0.369862 0 0 255
-17.1228 -10.8335 -0.723628 0 0 255
-17.1193 -10.8385 -0.200121 0 0 255
-17.3019 -10.4777 0.4878 0 0 255
-16.6855 -10.6618 0.374992 0 0 255
-16.0825 -10.849 0.373278 0 0 255
-15.8189 -8.75851 1.69189 0 0 255
-16.3176 -10.8398 -2.96776 0 0 255
-18.5447 -10.2888 -0.853658 0 0 255
-16.0863 -10.9293 -2.16759 0 0 255
-16.5057 -11.0263 -1.8642 0 0 255
-15.2588 -11.9355 -2.88519 0 0 255
-16.7797 -10.9552 -1.08362 0 0 255
-17.1374 -10.8224 -0.566072 0 0 255
-15.6354 -11.494 -0.783308 0 0 255
-15.6936 -11.4755 -0.72842 0 0 255
-15.7975 -11.4446 -0.406145 0 0 255
-18.7962 -10.3155 -0.978119 0 0 255
-17.2235 -10.8067 -0.714104 0 0 255
-17.1143 -10.8351 -0.375786 0 0 255
-17.2272 -10.8119 -0.183369 0 0 255
-17.1621 -10.8442 -0.106807 0 0 255
-16.6481 -10.7119 -0.323497 0 0 255
-15.9796 -11.1895 -0.711062 0 0 255
-16.0846 -11.1396 -0.191214 0 0 255
-15.9833 -11.1916 -0.187557 0 0 255
-16.0417 -11.1804 -0.110358 0 0 255
-16.0651 -10.8585 0.470704 0 0 255
-15.8408 -10.928 0.387108 0 0 255
-18.3496 -10.1399 0.41393 0 0 255
-16.1422 -10.8338 0.445239 0 0 255
-17.1807 -10.5044 -2.90419 0 0 255
-17.7283 -10.7009 -1.94253 0 0 255
-16.4153 -11.0548 -1.42989 0 0 255
-18.7021 -10.1932 0.076048 0 0 255
-18.372 -10.6363 -0.369858 0 0 255
-17.785 -10.8581 -0.364444 0 0 255
-15.6732 -11.5212 -0.824921 0 0 255
-20.174 -10.3481 0.230035 0 0 255
-20.06 -10.389 0.286721 0 0 255
-17.7514 -10.78 -1.08739 0 0 255
-18.5885 -10.0608 0.411734 0 0 255
-15.949 -10.9692 -2.21659 0 0 255
-17.3175 -10.471 0.376822 0 0 255
-17.134 -10.8295 -0.044175 0 0 255
-16.1703 -11.1313 -0.202142 0 0 255
-16.1261 -11.1448 -0.24835 0 0 255
-20.0246 -10.4087 0.246645 0 0 255
-15.21 -11.9395 -2.82909 0 0 255
-17.137 -10.835 -0.079864 0 0 255
-16.0987 -11.1435 -0.19454 0 0 255
-18.5053 -10.2555 -0.823666 0 0 255
-17.681 -10.8535 -0.999741 0 0 255
-17.7597 -10.6684 -1.9856 0 0 255
-20.0678 -10.4711 0.141402 0 0 255
-16.7128 -10.9616 -1.14755 0 0 255
-18.3648 -10.4576 -0.699965 0 0 255
-15.8561 -11.3988 -1.25553 0 0 255
-17.1848 -10.7627 -1.66098 0 0 255
-15.6362 -11.3614 -2.00307 0 0 255
-18.4795 -10.9023 -3.33319 0 0 255
-20.234 -10.3501 0.025608 0 0 255
-19.3729 -10.6392 -1.29597 0 0 255
-16.9395 -10.6893 -2.19547 0 0 255
-15.5948 -11.4934 -1.18532 0 0 255
-15.8084 -11.4394 -0.117829 0 0 255
-17.6115 -10.8826 -1.72199 0 0 255
-19.4103 -10.6242 -1.21032 0 0 255
-20.1248 -10.3696 0.206401 0 0 255
-17.6623 -10.8838 -1.04695 0 0 255
-15.6242 -11.4954 -0.551783 0 0 255
-17.6094 -10.687 -2.12309 0 0 255
-17.8333 -10.7988 -1.03623 0 0 255
-17.7375 -10.8033 -1.07193 0 0 255
-15.5958 -11.5106 -0.87865 0 0 255
-17.1788 -10.6346 -1.94927 0 0 255
-17.0655 -10.8455 -1.28061 0 0 255
-16.4226 -11.076 -1.2933 0 0 255
-20.259 -10.3404 0.081091 0 0 255
-20.0564 -10.3833 0.241913 0 0 255
-20.0372 -10.3876 0.194824 0 0 255
-17.12 -10.8367 -0.192591 0 0 255
-16.0981 -11.1515 -0.573885 0 0 255
-20.2184 -10.3538 0.091871 0 0 255
-19.3757 -10.6324 -1.29246 0 0 255
-15.9928 -11.1871 -0.258914 0 0 255
-20.1817 -10.3649 -0.047292 0 0 255
-18.9522 -10.7706 -1.96874 0 0 255
-18.2306 -10.1761 0.417525 0 0 255
-17.7512 -10.7848 -1.12192 0 0 255
-16.9283 -10.8878 -1.5471 0 0 255
-16.9616 -10.8872 -1.39379 0 0 255
-17.1239 -10.8358 -0.033139 0 0 255
-16.8439 -10.9154 -0.961957 0 0 255
-15.9349 -10.9618 -2.24256 0 0 255
-16.2555 -11.0967 -1.56279 0 0 255
-16.0023 -11.1772 -0.043672 0 0 255
-17.4133 -10.635 -2.20886 0 0 255
-17.7875 -10.7971 -1.03675 0 0 255
-20.1615 -10.3504 0.081974 0 0 255
-16.5462 -11.1284 -0.650481 0 0 255
-20.1273 -10.3634 0.144456 0 0 255
-16.7135 -10.9039 -0.944226 0 0 255
-15.683 -11.4772 -0.549314 0 0 255
-16.8401 -8.77804 1.24644 0 0 255
-20.038 -10.3982 0.225074 0 0 255
-15.8225 -11.4436 -0.387202 0 0 255
-15.1643 -11.9577 -3.1824 0 0 255
-20.3672 -10.3166 -2.24728 0 0 255
-18.1033 -10.7039 -0.248351 0 0 255
-17.2097 -10.8072 -0.040608 0 0 255
-17.1156 -10.8362 -0.109136 0 0 255
-16.591 -10.9653 -1.28657 0 0 255
-15.744 -11.464 -0.864392 0 0 255
-15.2062 -11.9393 -2.86043 0 0 255
-19.9141 -10.4326 0.761609 0 0 255
-19.9556 -10.4384 -1.93145 0 0 255
-16.9474 -10.4644 0.70764 0 0 255
-16.218 -11.1102 -1.4466 0 0 255
-16.0212 -10.8986 -1.91103 0 0 255
-16.0408 -11.1671 -0.815227 0 0 255
-16.8776 -10.908 -0.966036 0 0 255
-16.2112 -11.102 -1.21067 0 0 255
-18.8431 -10.8166 -2.21741 0 0 255
-16.0865 -11.1598 -0.32404 0 0 255
-16.2906 -11.0849 -1.52981 0 0 255
-19.3891 -10.631 -1.29515 0 0 255
-15.2089 -11.9358 -2.864 0 0 255
-15.1673 -11.9569 -3.17735 0 0 255
-16.625 -10.9611 -1.24661 0 0 255
-15.6839 -11.2906 -2.24775 0 0 255
-15.6073 -11.4585 -0.437343 0 0 255
-16.1638 -10.8957 -2.36036 0 0 255
-16.7247 -10.8635 -0.913295 0 0 255
-16.3675 -11.0341 -1.12331 0 0 255
-16.3558 -8.93658 1.27637 0 0 255
-17.2041 -10.8137 -0.32393 0 0 255
-17.8164 -10.4972 -2.20018 0 0 255
-16.9498 -10.6453 -2.24948 0 0 255
-15.9936 -11.1884 -0.054036 0 0 255
-16.1751 -11.1296 -0.448367 0 0 255
-16.0393 -11.1673 -0.251402 0 0 255
-16.1747 -11.1261 -0.96011 0 0 255
-15.7794 -11.4517 -0.411897 0 0 255
-16.4673 -8.90925 1.06183 0 0 255
-16.0479 -11.1698 -0.026111 0 0 255
-16.0139 -11.1782 -0.110509 0 0 255
-15.5549 -11.526 -0.892919 0 0 255
-20.073 -10.3851 0.195536 0 0 255
-17.2486 -10.5873 -2.24714 0 0 255
-15.3325 -11.5965 -1.13073 0 0 255
-16.0989 -10.908 -2.23772 0 0 255
-16.5619 -11.0463 -1.05925 0 0 255
-17.2178 -10.6116 -2.10566 0 0 255
-16.3197 -11.0597 -0.505722 0 0 255
-16.6069 -11.0154 -0.897405 0 0 255
-20.6383 -10.2179 0.129492 0 0 255
-20.1725 -10.3541 0.323728 0 0 255
-20.1914 -10.3548 0.132014 0 0 255
-18.5095 -10.2448 -0.840772 0 0 255
-19.4918 -10.6119 -1.64655 0 0 255
-20.1436 -10.3989 -3.25636 0 0 255
-17.2091 -10.8132 -0.191337 0 0 255
-16.3328 -10.778 0.379769 0 0 255
-17.7472 -10.8365 -1.20591 0 0 255
-16.4063 -10.8156 -0.303338 0 0 255
-16.0896 -11.157 -0.194395 0 0 255
-20.2845 -10.3636 0.184407 0 0 255
-20.0642 -10.3966 0.050467 0 0 255
-17.2219 -10.7931 -0.096453 0 0 255
-16.0713 -11.1581 -0.0862 0 0 255
-18.483 -10.9148 -2.97678 0 0 255
-16.0967 -11.1502 -0.844316 0 0 255
-15.2179 -11.9374 -2.87711 0 0 255
-19.5201 -10.5799 -2.4553 0 0 255
-17.1686 -10.8397 -0.265516 0 0 255
-16.1221 -11.1509 -0.181099 0 0 255
-16.0394 -11.178 -0.117699 0 0 255
-16.559 -11.0523 -1.04636 0 0 255
-15.3576 -11.607 -1.16971 0 0 255
-17.9061 -10.8046 -0.380728 0 0 255
-15.6933 -11.4938 -0.502732 0 0 255
-16.5281 -11.1023 -0.924088 0 0 255
-19.8077 -10.5034 -0.302433 0 0 255
-20.2452 -10.3594 -0.879116 0 0 255
-19.933 -10.4601 -1.02928 0 0 255
-16.9587 -10.5796 0.376795 0 0 255
-19.8297 -10.4972 -1.8581 0 0 255
-20.3484 -10.3389 -2.40259 0 0 255
-19.8417 -10.4854 -2.20069 0 0 255
-16.4575 -10.7744 -0.276731 0 0 255
-17.7626 -10.833 -1.2177 0 0 255
-16.2815 -10.9627 -0.282018 0 0 255
-19.2297 -10.6765 -2.40818 0 0 255
-17.1228 -10.8234 -0.979261 0 0 255
-16.3792 -11.1086 -0.450742 0 0 255
-15.9235 -11.2077 -0.200273 0 0 255
-20.5124 -10.2815 -1.02926 0 0 255
-17.1513 -10.8314 -0.026796 0 0 255
-17.2227 -10.8042 -0.378362 0 0 255
-17.7005 -10.8632 -0.778048 0 0 255
-17.2356 -10.8067 -0.866781 0 0 255
-16.4319 -10.8105 -0.384014 0 0 255
-15.9897 -11.1898 -0.480247 0 0 255
-16.0778 -11.1667 -0.561405 0 0 255
-15.7515 -11.4609 -0.924065 0 0 255
-15.5033 -11.5306 -0.869115 0 0 255
-14.4794 -12.1934 -3.26269 0 0 255
-20.397 -10.2933 0.938809 0 0 255
-17.9357 -10.799 -0.238342 0 0 255
-16.0766 -10.8591 0.418635 0 0 255
-16.3324 -10.874 -0.218026 0 0 255
-16.0806 -11.16 -0.086847 0 0 255
-16.5825 -11.0155 -0.975225 0 0 255
-16.0603 -11.1455 -0.712737 0 0 255
-15.9486 -11.2047 -0.704802 0 0 255
-18.4572 -10.346 -0.875429 0 0 255
-16.7374 -10.9435 -1.90427 0 0 255
-15.5057 -11.5245 -0.893315 0 0 255
-16.6188 -10.987 -1.79674 0 0 255
-15.347 -11.5938 -1.219 0 0 255
-15.6126 -11.3149 -2.08432 0 0 255
-16.2082 -11.1043 -0.141155 0 0 255
-15.4324 -11.3949 -1.65919 0 0 255
-16.9763 -10.8902 -0.152599 0 0 255
-17.2352 -10.8082 -0.352206 0 0 255
-20.6036 -10.2368 -1.88445 0 0 255
-16.6473 -10.812 -0.185921 0 0 255
-19.833 -10.4913 -1.85939 0 0 255
-20.1022 -10.4056 -2.94577 0 0 255
-15.9724 -11.1647 -1.03742 0 0 255
-16.663 -10.9797 -1.69444 0 0 255
-17.0226 -10.7075 -2.04012 0 0 255
-17.239 -10.5713 -2.24672 0 0 255
-15.9387 -11.0127 -2.07311 0 0 255
-18.4637 -10.0977 0.368141 0 0 255
-16.2849 -10.7898 0.407533 0 0 255
-15.9809 -10.886 0.346111 0 0 255
-16.0717 -11.1731 -0.037232 0 0 255
-16.4296 -10.804 -0.345292 0 0 255
-15.9625 -11.2035 -0.72027 0 0 255
-16.0172 -11.1636 -0.758179 0 0 255
-15.8264 -11.451 -0.631907 0 0 255
-17.8058 -10.6582 -1.90335 0 0 255
-15.8327 -11.407 -0.966661 0 0 255
-16.6894 -10.9575 -1.86165 0 0 255
-15.4495 -11.5673 -1.2114 0 0 255
-14.7835 -12.0712 -2.73699 0 0 255
-15.1407 -11.9649 -3.11463 0 0 255
-18.1928 -10.5952 -0.964832 0 0 255
-15.6842 -11.4833 -0.29026 0 0 255
-15.4521 -11.5692 -1.20621 0 0 255
-16.0939 -10.9218 -2.17851 0 0 255
-15.2398 -11.9226 -2.88434 0 0 255
-15.9547 -10.9001 0.381703 0 0 255
-17.1684 -10.7935 -0.993118 0 0 255
-17.2157 -10.7902 -1.06419 0 0 255
-16.8647 -10.9097 -1.95825 0 0 255
-15.4439 -11.0709 -2.93074 0 0 255
-16.6383 -10.9907 -1.9439 0 0 255
-15.3863 -11.5907 -1.25347 0 0 255
-16.8532 -10.9871 -1.39274 0 0 255
-15.2315 -11.3755 -1.52632 0 0 255
-17.6935 -10.816 -1.36086 0 0 255
-16.3234 -11.0093 -1.13749 0 0 255
-16.4487 -11.0279 -1.75751 0 0 255
-16.2359 -11.1781 -0.344168 0 0 255
-16.4163 -10.8708 -0.151568 0 0 255
-20.581 -10.2148 0.461741 0 0 255
-15.9014 -10.9209 0.418623 0 0 255
-15.9317 -10.9016 0.396949 0 0 255
-16.0357 -11.1778 -0.219438 0 0 255
-15.7723 -11.4592 -0.135234 0 0 255
-16.4689 -10.7784 -0.382363 0 0 255
-16.0169 -11.1492 -0.237068 0 0 255
-16.4781 -10.7784 -0.423659 0 0 255
-19.3921 -10.6365 -1.28999 0 0 255
-20.5993 -10.2471 -1.88329 0 0 255
-19.0697 -10.7245 -1.6105 0 0 255
-16.0915 -11.1311 -1.01978 0 0 255
-18.5539 -10.8966 -1.86758 0 0 255
-20.4521 -10.3105 -2.50098 0 0 255
-20.3748 -10.3188 -2.50461 0 0 255
-20.3263 -10.3281 -2.51334 0 0 255
-19.9395 -10.4537 -2.53759 0 0 255
-19.5406 -10.5713 -2.52716 0 0 255
-18.9958 -10.7444 -2.40658 0 0 255
-16.677 -10.9623 -1.85306 0 0 255
-17.1952 -10.601 -2.23403 0 0 255
-19.3936 -10.6549 -3.21803 0 0 255
-15.1615 -11.9564 -1.88349 0 0 255
-18.8922 -10.7889 -3.23524 0 0 255
-16.1748 -10.8581 -2.97867 0 0 255
-14.7687 -12.0746 -2.55187 0 0 255
-14.7596 -12.0773 -3.18553 0 0 255
-16.2244 -8.97626 0.919071 0 0 255
-19.7123 -10.5312 0.160765 0 0 255
-19.6513 -10.5317 -0.617387 0 0 255
-19.4435 -10.6173 -0.886297 0 0 255
-16.4292 -10.8044 -0.350342 0 0 255
-17.9838 -10.7798 -0.776233 0 0 255
-20.1861 -10.3295 -2.19741 0 0 255
-18.7427 -10.8401 -2.52335 0 0 255
-15.3061 -11.4094 -1.52997 0 0 255
-17.2178 -10.5903 -2.19824 0 0 255
-16.5379 -11.0087 -2.08494 0 0 255
-15.9 -10.9802 -2.208 0 0 255
-14.7777 -12.0865 -2.70839 0 0 255
-16.2999 -10.7887 0.379599 0 0 255
-15.4752 -11.5565 -1.21262 0 0 255
-15.0168 -11.9978 -2.75182 0 0 255
-16.3789 -10.8601 -0.196773 0 0 255
-19.611 -10.5677 -1.32955 0 0 255
-17.1586 -10.6407 -2.16722 0 0 255
-15.0657 -11.546 -2.27367 0 0 255
-18.1267 -10.7463 -0.461515 0 0 255
-16.6415 -11.1013 -1.04876 0 0 255
-15.4054 -11.3373 -1.97148 0 0 255
-18.4674 -10.0714 0.382595 0 0 255
-18.1747 -10.7546 -0.422744 0 0 255
-16.0294 -11.0434 -2.18975 0 0 255
-20.0644 -10.383 0.901196 0 0 255
-16.0912 -10.8551 0.577531 0 0 255
-16.5214 -10.7285 0.42115 0 0 255
-17.7559 -10.324 0.386206 0 0 255
-20.0102 -10.4075 0.263379 0 0 255
-20.6161 -10.2479 -0.042241 0 0 255
-18.5535 -10.3894 -0.067561 0 0 255
-19.3234 -10.6351 -0.145904 0 0 255
-16.4027 -10.8563 -0.192809 0 0 255
-16.4804 -10.776 -0.388666 0 0 255
-19.7935 -10.5045 -0.653887 0 0 255
-17.8151 -10.8368 -0.64787 0 0 255
-20.448 -10.2913 -0.995669 0 0 255
-16.5149 -10.9373 -0.764305 0 0 255
-15.4754 -11.546 -0.808335 0 0 255
-17.2119 -10.7783 -1.01626 0 0 255
-17.1232 -10.8218 -1.0158 0 0 255
-17.1623 -10.7897 -1.02438 0 0 255
-16.0577 -11.1621 -0.993247 0 0 255
-17.7745 -10.827 -1.32893 0 0 255
-17.7806 -10.8061 -1.35998 0 0 255
-16.6515 -10.9549 -1.32261 0 0 255
-20.2997 -10.3261 -1.88197 0 0 255
-20.0831 -10.4 -2.14882 0 0 255
-20.243 -10.4231 -2.52405 0 0 255
-19.9348 -10.5224 -2.54095 0 0 255
-17.1778 -10.6368 -2.10739 0 0 255
-18.8168 -10.8239 -2.52916 0 0 255
-15.9346 -11.0173 -2.07535 0 0 255
-18.4622 -10.941 -2.53331 0 0 255
-15.9719 -10.9913 -2.09504 0 0 255
-17.1094 -10.6191 -2.25876 0 0 255
-19.9633 -10.465 -2.91792 0 0 255
-18.4023 -11.0004 -2.91809 0 0 255
-19.6032 -10.5886 -3.24476 0 0 255
-19.3266 -10.6111 -3.19289 0 0 255
-15.4589 -11.8661 -2.71025 0 0 255
-15.3959 -11.8811 -2.71358 0 0 255
-15.1381 -11.9657 -2.73525 0 0 255
-17.1962 -10.4383 -2.93371 0 0 255
-15.3204 -11.9305 -2.90575 0 0 255
-15.9974 -10.8329 -2.7845 0 0 255
-15.2306 -11.9297 -2.90128 0 0 255
-15.1387 -11.9566 -3.00976 0 0 255
-15.1943 -11.9388 -3.08712 0 0 255
-14.9335 -12.0325 -3.22213 0 0 255
-19.8332 -9.65461 1.65055 0 0 255
-20.4845 -10.2134 0.940722 0 0 255
-19.7425 -10.4938 0.665296 0 0 255
-20.3906 -10.2878 0.485904 0 0 255
-17.9769 -10.2541 0.383215 0 0 255
-17.4468 -10.5524 0.279372 0 0 255
-20.0799 -10.3944 0.19366 0 0 255
-20.1783 -10.3377 0.145934 0 0 255
-19.3054 -10.6424 -0.126849 0 0 255
-17.0189 -10.8337 -0.140589 0 0 255
-19.4687 -10.6009 -0.278173 0 0 255
-16.2112 -11.0042 -0.204356 0 0 255
-16.3392 -10.9093 -0.247259 0 0 255
-16.5093 -10.7273 -0.253114 0 0 255
-17.6324 -10.8588 -0.389312 0 0 255
-19.5276 -10.6328 -0.492905 0 0 255
-16.5486 -11.0783 -0.629365 0 0 255
-16.0513 -11.1302 -1.03924 0 0 255
-19.2999 -10.664 -1.60014 0 0 255
-15.5295 -11.5193 -1.35183 0 0 255
-18.4866 -10.9262 -1.86422 0 0 255
-18.4831 -10.8896 -1.87659 0 0 255
-18.7042 -10.8494 -2.12654 0 0 255
-16.9866 -10.6814 -1.98225 0 0 255
-17.2503 -10.612 -2.02295 0 0 255
-17.2095 -10.5895 -2.1894 0 0 255
-20.1733 -10.3906 -2.72152 0 0 255
-19.6262 -10.5137 -2.85154 0 0 255
-18.7264 -10.9103 -2.88271 0 0 255
-15.2425 -11.3969 -2.33003 0 0 255
-19.882 -10.475 -3.22677 0 0 255
-19.5236 -10.644 -3.2429 0 0 255
-18.6402 -10.8806 -3.22628 0 0 255
-15.2353 -11.9204 -2.84567 0 0 255
-17.3132 -10.4195 -2.94382 0 0 255
-15.3806 -11.8687 -2.90288 0 0 255
-16.2051 -10.7557 -2.80269 0 0 255
-16.0075 -10.8101 -2.80131 0 0 255
-16.5428 -10.774 -2.98659 0 0 255
-15.0009 -11.9997 -3.19311 0 0 255
-15.1118 -11.973 -3.22016 0 0 255
-14.6817 -12.1157 -3.23565 0 0 255
-15.874 -8.67694 1.68341 0 0 255
-16.4015 -8.90909 1.27218 0 0 255
-20.4315 -10.2823 1.20775 0 0 255
-19.8024 -10.4882 0.497925 0 0 255
-18.2158 -10.1988 0.326261 0 0 255
-20.2497 -10.3037 0.257388 0 0 255
-19.4964 -10.5847 -0.096565 0 0 255
-18.5572 -10.4036 -0.097979 0 0 255
-16.2231 -11.0667 -0.160366 0 0 255
-19.3762 -10.6327 -0.48685 0 0 255
-15.5804 -11.4527 -0.466257 0 0 255
-19.7581 -10.563 -0.864783 0 0 255
-16.1725 -11.1238 -0.997322 0 0 255
-15.992 -11.1272 -1.13537 0 0 255
-17.0228 -10.7104 -2.00914 0 0 255
-18.9545 -10.7712 -2.36999 0 0 255
-19.4157 -10.6228 -2.44221 0 0 255
-18.9783 -10.7831 -2.53462 0 0 255
-18.5724 -10.8856 -2.5002 0 0 255
-17.3775 -10.6132 -2.27557 0 0 255
-20.1342 -10.4713 -3.26823 0 0 255
-17.2553 -10.4281 -2.8208 0 0 255
-15.149 -11.9449 -2.82744 0 0 255
-15.712 -10.9419 -2.8113 0 0 255
-15.0798 -11.9753 -3.19378 0 0 255
-15.1827 -11.9431 -3.37199 0 0 255
-16.8354 -10.6349 0.334762 0 0 255
-17.8229 -10.8104 -0.352281 0 0 255
-20.0162 -10.4592 -1.01201 0 0 255
-16.6811 -11.0093 -1.23921 0 0 255
-17.1305 -10.6809 -2.12173 0 0 255
-15.8773 -11.0375 -2.47393 0 0 255
-14.6078 -12.1327 -2.90344 0 0 255
-15.6676 -10.904 -2.90913 0 0 255
-15.5907 -10.9068 -2.91657 0 0 255
-16.2544 -8.95895 1.14447 0 0 255
-20.2816 -10.3425 1.21992 0 0 255
-20.6088 -10.2925 0.840172 0 0 255
-18.578 -10.3863 0.035786 0 0 255
-16.0305 -11.1669 -0.038034 0 0 255
-19.6143 -10.5421 -0.37265 0 0 255
-18.5358 -10.3934 -0.518538 0 0 255
-16.4939 -10.83 -0.730757 0 0 255
-19.5767 -10.5787 -1.02055 0 0 255
-16.0952 -10.9768 -1.29244 0 0 255
-15.7948 -11.4296 -1.4242 0 0 255
-19.3713 -10.6667 -2.5398 0 0 255
-17.5533 -10.4239 -2.8481 0 0 255
-15.8754 -10.829 -2.9172 0 0 255
-16.5873 -10.8519 -0.226608 0 0 255
-16.3235 -10.8854 -0.245115 0 0 255
-17.7489 -10.8303 -1.27792 0 0 255
-16.5872 -10.9951 -1.30725 0 0 255
-17.1242 -10.8912 -1.37088 0 0 255
-18.099 -10.2314 0.305376 0 0 255
-16.5863 -10.8315 -0.276628 0 0 255
-17.7941 -10.3472 0.306878 0 0 255
-16.1182 -11.226 -0.255633 0 0 255
-16.0331 -11.0017 -2.29359 0 0 255
-16.7315 -11.2834 -0.656137 0 0 255
-16.5121 -11.192 -1.45027 0 0 255
-16.5636 -11.0196 -1.58943 0 0 255
-16.4034 -10.8221 -2.98194 0 0 255
-15.1772 -11.9529 -3.13042 0 0 255
-14.9111 -12.0137 -3.00925 0 0 255
-15.2604 -11.9229 -2.82715 0 0 255
-15.2182 -11.9424 -2.82332 0 0 255
-18.7761 -10.8185 -3.003 0 0 255
-18.4473 -10.9277 -2.96236 0 0 255
-19.4315 -10.6186 -3.00391 0 0 255
-15.1972 -11.947 -2.75407 0 0 255
-18.1267 -11.0355 -2.88707 0 0 255
-18.1758 -11.0164 -2.88223 0 0 255
-19.894 -10.4742 -2.97402 0 0 255
-19.2224 -10.7009 -2.88579 0 0 255
-18.0047 -11.0643 -2.80143 0 0 255
-17.9894 -11.0713 -2.7886 0 0 255
-19.5021 -10.6253 -2.86449 0 0 255
-20.6367 -10.2322 -2.89538 0 0 255
-18.4176 -10.9343 -2.77783 0 0 255
-20.4406 -10.3006 -2.85571 0 0 255
-18.7592 -10.8199 -2.71933 0 0 255
-18.3453 -10.9509 -2.68633 0 0 255
-20.4997 -10.2958 -2.79108 0 0 255
-20.36 -10.3213 -2.77922 0 0 255
-20.3252 -10.3469 -2.71457 0 0 255
-20.2584 -10.3647 -2.69457 0 0 255
-20.1911 -10.3912 -2.6909 0 0 255
-19.5659 -10.5851 -2.64624 0 0 255
-19.5092 -10.5921 -2.61199 0 0 255
-18.4828 -10.9249 -2.5646 0 0 255
-18.5815 -10.8935 -2.55499 0 0 255
-18.6761 -10.8545 -2.53138 0 0 255
-19.4397 -10.6336 -2.53802 0 0 255
-19.2026 -10.699 -2.52212 0 0 255
-19.4621 -10.6107 -2.52752 0 0 255
-16.0067 -10.9681 -2.17579 0 0 255
-16.0841 -10.9343 -2.16074 0 0 255
-19.2139 -10.6896 -2.42457 0 0 255
-19.2385 -10.6948 -2.40417 0 0 255
-20.669 -10.2224 -2.4301 0 0 255
-20.6622 -10.214 -2.34961 0 0 255
-18.8069 -10.8144 -2.20314 0 0 255
-20.1507 -10.3726 -2.244 0 0 255
-15.7634 -11.4176 -1.97367 0 0 255
-19.1707 -10.7159 -2.18277 0 0 255
-15.7271 -11.4258 -1.95505 0 0 255
-17.5125 -10.8693 -2.0088 0 0 255
-17.5236 -10.8678 -1.99661 0 0 255
-18.9447 -10.7759 -2.08648 0 0 255
-19.6603 -10.5283 -2.10565 0 0 255
-17.8219 -10.6153 -1.92462 0 0 255
-17.5583 -10.858 -1.94813 0 0 255
-15.0597 -11.9771 -1.89562 0 0 255
-16.6436 -10.9714 -1.84677 0 0 255
-15.1432 -11.965 -1.87955 0 0 255
-19.6951 -10.5229 -2.04557 0 0 255
-18.9668 -10.7668 -1.95678 0 0 255
-17.7223 -10.8079 -1.83719 0 0 255
-17.717 -10.8151 -1.82695 0 0 255
-17.7294 -10.806 -1.81904 0 0 255
-18.5096 -10.9211 -1.86187 0 0 255
-18.471 -10.932 -1.85106 0 0 255
-19.4197 -10.6297 -1.86572 0 0 255
-19.4657 -10.6304 -1.85183 0 0 255
-20.674 -10.2222 -1.88417 0 0 255
-18.73 -10.8429 -1.81295 0 0 255
-18.7556 -10.8376 -1.80235 0 0 255
-19.5044 -10.6035 -1.72705 0 0 255
-15.7382 -11.404 -1.51913 0 0 255
-19.4719 -10.6096 -1.66893 0 0 255
-19.287 -10.6727 -1.62406 0 0 255
-15.5525 -11.4847 -1.40718 0 0 255
-18.6173 -10.8787 -1.50082 0 0 255
-17.7776 -10.7911 -1.39241 0 0 255
-16.601 -10.9622 -1.29397 0 0 255
-16.6169 -10.9623 -1.28361 0 0 255
-20.3903 -10.3029 -1.44688 0 0 255
-17.9754 -10.7391 -1.30385 0 0 255
-18.023 -10.7105 -1.29718 0 0 255
-18.0052 -10.7276 -1.28008 0 0 255
-18.7746 -10.834 -1.31109 0 0 255
-18.8166 -10.812 -1.27808 0 0 255
-20.5457 -10.2561 -1.26655 0 0 255
-18.1138 -10.6825 -1.15603 0 0 255
-18.1238 -10.681 -1.1182 0 0 255
-19.3906 -10.6314 -1.06466 0 0 255
-18.2126 -10.5448 -0.978988 0 0 255
-20.6862 -10.2226 -1.0775 0 0 255
-19.5963 -10.5664 -1.03718 0 0 255
-20.0412 -10.4248 -1.0028 0 0 255
-19.6757 -10.5465 -0.98844 0 0 255
-20.0526 -10.4161 -0.990346 0 0 255
-16.6231 -10.8469 -0.842471 0 0 255
-18.1371 -10.679 -0.884187 0 0 255
-16.1859 -11.1282 -0.714988 0 0 255
-16.526 -11.1302 -0.619391 0 0 255
-15.5634 -11.4902 -0.608475 0 0 255
-20.0774 -10.4214 -0.641079 0 0 255
-16.6033 -11.0889 -0.569122 0 0 255
-20.2711 -10.3427 -0.639626 0 0 255
-19.7103 -10.5164 -0.555076 0 0 255
-19.9715 -10.4381 -0.551162 0 0 255
-17.1313 -10.8424 -0.473903 0 0 255
-17.8131 -10.7161 -0.481062 0 0 255
-16.3953 -10.9487 -0.44928 0 0 255
-17.7394 -10.7409 -0.431839 0 0 255
-17.7845 -10.7257 -0.417172 0 0 255
-18.5189 -10.5643 -0.382109 0 0 255
-19.805 -10.484 -0.395165 0 0 255
-16.2677 -10.9644 -0.273057 0 0 255
-16.3233 -10.9487 -0.272708 0 0 255
-19.9576 -10.4614 -0.294077 0 0 255
-20.4327 -10.2916 -0.28034 0 0 255
-16.2753 -10.958 -0.209161 0 0 255
-16.8853 -10.86 -0.210684 0 0 255
-17.05 -10.8641 -0.206742 0 0 255
-16.1869 -11.1296 -0.187555 0 0 255
-20.357 -10.3146 -0.195884 0 0 255
-19.5915 -10.5616 -0.089919 0 0 255
-17.1372 -10.8357 -0.062776 0 0 255
-16.0194 -11.1836 -0.05176 0 0 255
-17.1404 -10.8411 -0.046834 0 0 255
-20.5946 -10.2351 -0.049083 0 0 255
-20.2934 -10.3352 -0.01392 0 0 255
-19.8232 -10.4781 -0.004474 0 0 255
-20.4967 -10.2646 0.12052 0 0 255
-19.782 -10.5145 0.126773 0 0 255
-20.0208 -10.4105 0.197708 0 0 255
-20.0238 -10.4114 0.24727 0 0 255
-18.6182 -10.0522 0.39891 0 0 255
-19.9895 -10.4396 0.438616 0 0 255
-20.4007 -10.3033 0.492129 0 0 255
-18.5533 -10.0683 0.480582 0 0 255
-20.242 -10.3429 0.604437 0 0 255
-17.5443 -10.3958 0.57327 0 0 255
-19.6151 -10.5555 0.665667 0 0 255
-20.6075 -10.2241 0.846116 0 0 255
-20.4672 -10.2642 0.911901 0 0 255
-19.6746 -10.5466 0.907016 0 0 255
-20.1464 -10.3884 1.20665 0 0 255
-15.9639 -9.06308 1.1429 0 0 255
-16.0414 -9.03795 1.14937 0 0 255
-15.2606 -11.924 -3.28119 0 0 255
-15.0748 -11.9843 -3.21964 0 0 255
-14.7598 -12.0809 -3.19151 0 0 255
-14.7392 -12.0795 -3.17501 0 0 255
-15.1396 -11.9514 -3.11255 0 0 255
-15.0784 -11.9778 -3.0944 0 0 255
-15.2017 -11.9351 -3.0888 0 0 255
-15.1569 -11.9493 -3.04144 0 0 255
-15.0324 -11.9863 -2.98509 0 0 255
-14.876 -12.045 -2.89362 0 0 255
-15.2193 -11.9397 -2.90149 0 0 255
-15.3251 -11.9042 -2.86874 0 0 255
-17.5741 -10.5028 -2.77266 0 0 255
-15.2007 -11.9442 -2.76896 0 0 255
-15.0209 -11.9888 -2.67447 0 0 255
-20.0669 -10.412 -2.95054 0 0 255
-20.0743 -10.4148 -2.93106 0 0 255
-18.5325 -10.9133 -2.85144 0 0 255
-18.9038 -10.7902 -2.86362 0 0 255
-16.9986 -10.7024 -2.5544 0 0 255
-15.3146 -11.9118 -2.55656 0 0 255
-20.314 -10.3293 -2.78735 0 0 255
-20.5931 -10.2585 -2.8018 0 0 255
-20.386 -10.3181 -2.78037 0 0 255
-15.96 -10.9568 -2.25753 0 0 255
-16.1099 -10.9076 -2.2604 0 0 255
-15.9579 -10.9541 -2.24117 0 0 255
-15.8576 -10.9998 -2.22087 0 0 255
-17.3212 -10.5772 -2.28979 0 0 255
-16.1386 -10.9159 -2.223 0 0 255
-16.9355 -10.6669 -2.25914 0 0 255
-20.135 -10.4045 -2.57118 0 0 255
-15.936 -10.9912 -2.1826 0 0 255
-20.1798 -10.3746 -2.56229 0 0 255
-19.0103 -10.7408 -2.49834 0 0 255
-17.1262 -10.6179 -2.21265 0 0 255
-18.5528 -10.8859 -2.45069 0 0 255
-18.7533 -10.8467 -2.39783 0 0 255
-20.6174 -10.2231 -2.41263 0 0 255
-14.9808 -12.0043 -2.13472 0 0 255
-20.3819 -10.3081 -2.30812 0 0 255
-20.482 -10.2805 -2.28942 0 0 255
-18.8391 -10.8234 -2.20511 0 0 255
-18.5957 -10.8809 -2.14445 0 0 255
-20.2707 -10.3422 -2.17948 0 0 255
-15.6332 -11.4502 -1.86793 0 0 255
-19.0978 -10.7241 -2.07236 0 0 255
-15.5766 -11.4808 -1.80359 0 0 255
-17.6824 -10.8236 -1.84158 0 0 255
-19.1447 -10.7226 -1.89532 0 0 255
-18.4325 -10.9456 -1.86082 0 0 255
-19.1352 -10.7329 -1.88108 0 0 255
-19.3911 -10.6358 -1.85266 0 0 255
-19.5103 -10.6006 -1.83276 0 0 255
-20.0792 -10.3933 -1.82188 0 0 255
-20.3383 -10.3167 -1.82178 0 0 255
-19.761 -10.5047 -1.76953 0 0 255
-20.1097 -10.3936 -1.64833 0 0 255
-18.8827 -10.7856 -1.6094 0 0 255
-20.0878 -10.407 -1.61164 0 0 255
-20.4861 -10.2795 -1.58087 0 0 255
-19.338 -10.6409 -1.49841 0 0 255
-17.7307 -10.8469 -1.32541 0 0 255
-17.9884 -10.735 -1.29265 0 0 255
-19.1577 -10.705 -1.32857 0 0 255
-18.9875 -10.758 -1.32257 0 0 255
-19.372 -10.6128 -1.21672 0 0 255
-18.1633 -10.6423 -1.09516 0 0 255
-18.1313 -10.6855 -1.07655 0 0 255
-20.5944 -10.2353 -1.09527 0 0 255
-20.53 -10.2712 -1.05601 0 0 255
-20.5468 -10.2647 -1.04983 0 0 255
-20.0827 -10.4058 -0.984687 0 0 255
-19.6622 -10.5376 -0.909154 0 0 255
-20.0482 -10.4187 -0.883137 0 0 255
-19.8101 -10.491 -0.874077 0 0 255
-16.0977 -11.1508 -0.727981 0 0 255
-19.3485 -10.6359 -0.729764 0 0 255
-17.7995 -10.8067 -0.629876 0 0 255
-19.4525 -10.64 -0.668108 0 0 255
-18.2563 -10.6409 -0.563071 0 0 255
-15.5739 -11.4359 -0.525969 0 0 255
-19.4658 -10.5978 -0.586428 0 0 255
-17.775 -10.7221 -0.512143 0 0 255
-17.293 -10.7782 -0.485049 0 0 255
-17.2117 -10.8191 -0.477629 0 0 255
-16.1094 -11.1525 -0.452573 0 0 255
-16.565 -10.7459 -0.422344 0 0 255
-18.3821 -10.6033 -0.462465 0 0 255
-16.5065 -10.7528 -0.403007 0 0 255
-15.7566 -11.4587 -0.412501 0 0 255
-17.5429 -10.9046 -0.418521 0 0 255
-15.8013 -11.4519 -0.401171 0 0 255
-18.0399 -10.7569 -0.400657 0 0 255
-16.4344 -10.787 -0.354897 0 0 255
-19.6114 -10.5496 -0.411253 0 0 255
-19.1601 -10.6771 -0.3162 0 0 255
-19.2584 -10.6666 -0.314766 0 0 255
-19.2363 -10.6734 -0.310505 0 0 255
-16.7247 -10.7769 -0.242638 0 0 255
-16.1117 -11.1492 -0.217468 0 0 255
-16.0789 -11.1573 -0.214213 0 0 255
-19.5125 -10.5816 -0.247326 0 0 255
-17.7232 -10.8594 -0.226292 0 0 255
-17.2941 -10.7881 -0.217592 0 0 255
-16.0969 -11.1531 -0.207599 0 0 255
-17.1955 -10.815 -0.211327 0 0 255
-17.7693 -10.8439 -0.1969 0 0 255
-17.755 -10.8552 -0.190199 0 0 255
-19.4523 -10.6058 -0.18643 0 0 255
-18.5873 -10.3909 -0.117689 0 0 255
-19.5759 -10.5741 -0.094168 0 0 255
-19.5523 -10.5848 -0.09399 0 0 255
-18.1171 -10.7404 -0.083556 0 0 255
-18.4979 -10.4078 -0.069192 0 0 255
-18.485 -10.4122 -0.056111 0 0 255
-19.7133 -10.5393 0.13766 0 0 255
-18.322 -10.1471 0.35364 0 0 255
-17.0685 -10.5456 0.36234 0 0 255
-17.8096 -10.3149 0.377487 0 0 255
-17.6988 -10.3493 0.375833 0 0 255
-17.1916 -10.5131 0.376835 0 0 255
-17.7745 -10.3208 0.383411 0 0 255
-15.8498 -10.929 0.36905 0 0 255
-16.5699 -10.7065 0.377234 0 0 255
-18.1807 -10.1895 0.407646 0 0 255
-16.0614 -10.8616 0.400336 0 0 255
-20.539 -10.2416 0.470871 0 0 255
-20.0904 -10.395 0.481494 0 0 255
-16.9703 -10.5779 0.433119 0 0 255
-18.5428 -10.081 0.486796 0 0 255
-18.6399 -10.0441 0.499311 0 0 255
-17.9209 -10.2814 0.491232 0 0 255
-20.3045 -10.322 0.55618 0 0 255
-18.1952 -10.1875 0.505196 0 0 255
-17.3996 -10.4396 0.498768 0 0 255
-18.0919 -10.2156 0.509209 0 0 255
-17.3762 -10.4435 0.509553 0 0 255
-16.9565 -10.5817 0.504374 0 0 255
-19.6385 -10.5303 0.567404 0 0 255
-17.4954 -10.4106 0.51609 0 0 255
-16.3326 -10.7784 0.50451 0 0 255
-17.3889 -10.4413 0.518609 0 0 255
-16.7655 -10.6351 0.518313 0 0 255
-19.6379 -10.553 0.651013 0 0 255
-16.3023 -10.7924 0.574677 0 0 255
-19.6685 -10.5432 0.663346 0 0 255
-16.2034 -10.8134 0.604721 0 0 255
-20.5119 -10.2502 0.902894 0 0 255
-20.0364 -10.4015 0.901266 0 0 255
-19.6983 -10.5374 0.911078 0 0 255
-19.699 -10.5378 0.923759 0 0 255
-20.0699 -10.3959 1.02424 0 0 255
-19.9867 -10.423 1.07276 0 0 255
-20.0759 -10.4016 1.19197 0 0 255
-20.1401 -10.389 1.22494 0 0 255
-19.5915 -10.5543 1.21168 0 0 255
-19.5569 -10.5617 1.22106 0 0 255
-16.7791 -8.80555 0.914181 0 0 255
-16.7908 -8.80588 0.92437 0 0 255
-16.4759 -8.90907 0.939261 0 0 255
-16.4715 -8.90207 1.04639 0 0 255
-15.934 -9.07156 1.07341 0 0 255
-16.0649 -9.03137 1.08605 0 0 255
-16.8331 -8.79189 1.13687 0 0 255
-16.066 -9.03252 1.14619 0 0 255
-16.1427 -9.00036 1.15271 0 0 255
-16.0538 -9.03772 1.17932 0 0 255
-16.8027 -8.80257 1.2729 0 0 255
-16.4588 -8.90886 1.28583 0 0 255
-16.8986 -8.67594 1.47963 0 0 255
-15.3041 -11.9124 -2.90397 0 0 255
-14.9005 -12.0349 -2.75361 0 0 255
-20.1338 -10.3996 -2.96467 0 0 255
-16.3297 -10.9208 -2.53959 0 0 255
-18.2874 -10.9771 -2.5582 0 0 255
-19.5867 -10.5803 -2.55628 0 0 255
-19.0231 -10.756 -2.52607 0 0 255
-18.5917 -10.8719 -2.49729 0 0 255
-16.0338 -10.9729 -2.15918 0 0 255
-18.7231 -10.8491 -2.38971 0 0 255
-20.0007 -10.4469 -2.4369 0 0 255
-14.9647 -12.0122 -2.15237 0 0 255
-19.4541 -10.6118 -2.25187 0 0 255
-19.2533 -10.6959 -2.2077 0 0 255
-19.8166 -10.4953 -2.21867 0 0 255
-18.8258 -10.8143 -2.17786 0 0 255
-18.7961 -10.8191 -2.17636 0 0 255
-16.7603 -10.9384 -1.95896 0 0 255
-20.2631 -10.3439 -2.20457 0 0 255
-18.6067 -10.8823 -2.125 0 0 255
-18.9435 -10.7795 -2.10457 0 0 255
-15.168 -11.9599 -1.88448 0 0 255
-19.1103 -10.725 -2.00482 0 0 255
