-17.5261 -11.1193 -3.41423 255 0 0
-17.7327 -11.0816 -3.40607 255 0 0
-17.9667 -11.0452 -3.4063 255 0 0
-16.6098 -11.2339 -3.14489 255 0 0
-16.5837 -11.2341 -3.13227 255 0 0
-17.5141 -11.1113 -3.1363 255 0 0
-17.2226 -11.1851 -3.0986 255 0 0
-16.0516 -11.324 -2.8702 255 0 0
-16.3301 -11.2659 -2.82826 255 0 0
-17.01 -11.221 -2.79367 255 0 0
-19.2115 -10.4327 -2.83011 255 0 0
-17.1735 -11.1898 -2.74976 255 0 0
-20.5162 -10.1546 -2.76464 255 0 0
-15.689 -11.3947 -2.53818 255 0 0
-19.6496 -10.2415 -2.61986 255 0 0
-16.7545 -11.2595 -2.50448 255 0 0
-17.349 -11.1679 -2.44768 255 0 0
-16.2952 -11.3387 -2.26446 255 0 0
-17.008 -11.24 -2.21516 255 0 0
-16.9601 -11.2572 -2.21538 255 0 0
-16.8935 -11.2536 -2.19752 255 0 0
-15.4692 -11.425 -2.14051 255 0 0
-19.4637 -10.354 -1.9802 255 0 0
-16.4171 -11.3319 -1.98187 255 0 0
-16.4125 -11.355 -1.95492 255 0 0
-15.0339 -11.4929 -1.85095 255 0 0
-16.4406 -11.328 -1.85344 255 0 0
-17.9225 -10.8667 -1.77222 255 0 0
-17.9341 -10.8683 -1.62431 255 0 0
-18.017 -10.8569 -1.6175 255 0 0
-18.0631 -10.8493 -1.60549 255 0 0
-16.4087 -11.3682 -1.60383 255 0 0
-20.2658 -10.5873 -1.45232 255 0 0
-20.537 -10.5712 -1.41693 255 0 0
-16.7111 -11.31 -1.4599 255 0 0
-15.3624 -11.4875 -1.40603 255 0 0
-16.1268 -11.4085 -1.33151 255 0 0
-16.0849 -11.4178 -1.33532 255 0 0
-16.0207 -11.4204 -1.33408 255 0 0
-15.9735 -11.4266 -1.33654 255 0 0
-19.0399 -10.3133 -1.12692 255 0 0
-16.5826 -11.3568 -1.29018 255 0 0
-15.7092 -11.4498 -1.18509 255 0 0
-15.7505 -11.4419 -1.18092 255 0 0
-15.1437 -11.5171 -1.20068 255 0 0
-16.381 -11.3861 -1.09588 255 0 0
-14.9892 -11.546 -1.15543 255 0 0
-16.1331 -11.4175 -1.09183 255 0 0
-15.8531 -11.4486 -1.10724 255 0 0
-16.3896 -11.3944 -1.07615 255 0 0
-16.4837 -11.3821 -1.05567 255 0 0
-15.4298 -11.4951 -0.922941 255 0 0
-16.3528 -11.4178 -0.810213 255 0 0
-15.1625 -11.5285 -0.816937 255 0 0
-17.2146 -10.6712 -0.614792 255 0 0
-16.3155 -11.4171 -0.586911 255 0 0
-17.8118 -10.4703 -0.412156 255 0 0
-17.6725 -10.4904 -0.421698 255 0 0
-17.0251 -10.5723 -0.465983 255 0 0
-17.7042 -10.4917 -0.390355 255 0 0
-17.0877 -10.556 -0.435388 255 0 0
-15.9473 -11.4825 -0.543024 255 0 0
-15.9008 -11.4866 -0.549961 255 0 0
-18.1367 -10.4405 -0.252503 255 0 0
-14.9578 -11.5759 -0.58312 255 0 0
-17.0822 -10.5739 -0.341341 255 0 0
-17.5018 -10.516 -0.291673 255 0 0
-16.849 -10.596 -0.339341 255 0 0
-18.7924 -10.3693 -0.14742 255 0 0
-16.099 -11.4591 -0.332682 255 0 0
-16.3431 -11.4156 -0.290448 255 0 0
-15.3514 -11.5419 -0.380131 255 0 0
-15.5074 -11.5202 -0.346137 255 0 0
-15.4562 -11.5259 -0.352065 255 0 0
-15.8784 -11.4908 -0.289853 255 0 0
-14.9345 -11.5824 -0.370547 255 0 0
-16.285 -11.4495 -0.219741 255 0 0
-16.3314 -11.4302 -0.204982 255 0 0
-15.8906 -11.4861 -0.173038 255 0 0
-14.9734 -11.5849 -0.222196 255 0 0
-17.462 -10.2753 0.239893 255 0 0
-16.7498 -10.6058 0.202826 255 0 0
-15.749 -11.5309 0.245154 255 0 0
-15.3378 -11.5898 0.244154 255 0 0
-15.2521 -11.6077 0.244975 255 0 0
-15.1606 -11.6063 0.234699 255 0 0
-15.4696 -11.5635 0.294854 255 0 0
-15.2593 -11.5869 0.294409 255 0 0
-16.521 -11.3303 0.558035 255 0 0
-14.8644 -11.4999 0.472789 255 0 0
-14.8985 -11.5066 0.706267 255 0 0
-16.8948 -11.1222 -4.40357 255 0 0
-21.4666 -10.4714 -4.80434 255 0 0
-17.4541 -11.0659 -4.08674 255 0 0
-15.9656 -11.2678 -3.83394 255 0 0
-16.1593 -11.2817 -3.84978 255 0 0
-16.7241 -11.1821 -3.81481 255 0 0
-16.2613 -11.2538 -3.71721 255 0 0
-17.9137 -11.0362 -3.74982 255 0 0
-16.1828 -11.2544 -3.47797 255 0 0
-16.1536 -11.2666 -3.37624 255 0 0
-15.6309 -11.3518 -3.16279 255 0 0
-15.8674 -11.348 -2.86976 255 0 0
-18.6708 -10.2925 -2.89206 255 0 0
-17.1812 -11.1546 -2.86414 255 0 0
-18.641 -10.3264 -2.76086 255 0 0
-17.1327 -11.2018 -2.73787 255 0 0
-17.5987 -11.1328 -2.72153 255 0 0
-16.1927 -11.3155 -2.5925 255 0 0
-19.4708 -10.4278 -2.51177 255 0 0
-17.4983 -11.1886 -2.15586 255 0 0
-15.4873 -11.4525 -1.94665 255 0 0
-16.6573 -11.3081 -1.95705 255 0 0
-18.4939 -10.5691 -1.7969 255 0 0
-16.4018 -11.3414 -1.75023 255 0 0
-15.7996 -11.4162 -1.69132 255 0 0
-17.8831 -10.8286 -1.38672 255 0 0
-15.2487 -11.494 -1.36567 255 0 0
-19.0283 -10.3204 -1.09912 255 0 0
-15.364 -11.4748 -1.16939 255 0 0
-15.1541 -11.5205 -1.17783 255 0 0
-17.0408 -10.8501 -1.02712 255 0 0
-15.7021 -11.4568 -1.12381 255 0 0
-18.4303 -10.6564 -0.940192 255 0 0
-17.0652 -10.8357 -0.971794 255 0 0
-18.2011 -10.8811 -0.930682 255 0 0
-16.4949 -11.3783 -1.0197 255 0 0
-16.5173 -11.3923 -0.685142 255 0 0
-18.2085 -10.5865 -0.496089 255 0 0
-16.7645 -10.596 -0.532439 255 0 0
-16.672 -11.3818 -0.529076 255 0 0
-16.5023 -11.4092 -0.490303 255 0 0
-16.2862 -11.4375 -0.304136 255 0 0
-15.8963 -11.4841 -0.158145 255 0 0
-17.3542 -10.5258 0.109392 255 0 0
-17.2132 -10.5397 0.0949464 255 0 0
-17.9856 -8.72377 0.270376 255 0 0
-17.7244 -8.89595 0.338333 255 0 0
-15.3183 -11.5819 0.336281 255 0 0
-17.7678 -8.7051 0.815978 255 0 0
-17.6507 -11.0429 -3.67502 255 0 0
-21.3228 -10.5623 -4.10968 255 0 0
-18.4482 -10.3954 -2.92584 255 0 0
-18.4608 -10.421 -2.81858 255 0 0
-19.6615 -10.2826 -2.6502 255 0 0
-16.6572 -11.3003 -2.53783 255 0 0
-17.977 -10.8501 -2.06542 255 0 0
-19.5745 -10.2759 -1.97343 255 0 0
-16.997 -10.6663 -1.73821 255 0 0
-20.3673 -10.5421 -1.68681 255 0 0
-19.7359 -10.4473 -1.65975 255 0 0
-15.5758 -11.4426 -1.6952 255 0 0
-19.0726 -10.4896 -1.50765 255 0 0
-15.4434 -11.4845 -1.275 255 0 0
-18.9623 -10.3518 -1.06739 255 0 0
-17.1319 -10.8371 -0.988959 255 0 0
-17.0468 -10.8282 -0.954574 255 0 0
-16.2481 -11.4006 -0.980313 255 0 0
-19.6788 -10.5236 -0.710891 255 0 0
-15.4807 -11.4886 -0.91552 255 0 0
-18.1764 -10.4377 -0.443741 255 0 0
-16.9085 -10.5777 -0.521312 255 0 0
-16.6103 -11.3833 -0.542903 255 0 0
-16.5349 -11.4044 -0.464859 255 0 0
-16.5424 -11.3922 -0.419733 255 0 0
-17.31 -10.5453 0.192442 255 0 0
-17.4975 -9.19788 0.304396 255 0 0
-16.2649 -11.4629 0.250376 255 0 0
-16.0077 -11.4929 0.240064 255 0 0
-17.3337 -10.5554 0.572415 255 0 0
-15.9302 -11.5245 0.374823 255 0 0
-15.2164 -11.6018 0.276126 255 0 0
-17.3244 -10.5311 0.592183 255 0 0
-14.6595 -11.52 0.64788 255 0 0
-16.5056 -11.2146 -3.66182 255 0 0
-19.5602 -10.2177 -2.90684 255 0 0
-19.783 -10.2095 -2.66845 255 0 0
-16.5908 -11.2939 -2.54533 255 0 0
-17.0594 -11.2129 -2.46939 255 0 0
-16.3844 -11.3511 -1.96654 255 0 0
-17.7768 -10.912 -1.21396 255 0 0
-18.9757 -10.3657 -1.06904 255 0 0
-18.7599 -10.4954 -0.987262 255 0 0
-19.3779 -10.4518 -0.860939 255 0 0
-18.7378 -10.608 -0.855354 255 0 0
-19.4493 -10.5091 -0.809005 255 0 0
-15.6708 -11.5055 -0.859612 255 0 0
-16.571 -11.3672 -0.771633 255 0 0
-18.5828 -10.3725 -0.383688 255 0 0
-17.396 -10.515 -0.302688 255 0 0
-16.4149 -11.411 -0.413225 255 0 0
-15.5876 -11.5077 -0.48692 255 0 0
-16.5475 -11.4208 -0.033635 255 0 0
-16.3577 -11.4621 -0.0189764 255 0 0
-17.6448 -8.99076 0.230831 255 0 0
-17.2758 -10.5047 0.614364 255 0 0
-14.7573 -11.5257 0.635174 255 0 0
-16.8157 -11.1415 -3.80286 255 0 0
-17.0201 -11.212 -2.78929 255 0 0
-16.4364 -11.3066 -2.54201 255 0 0
-16.5545 -11.3194 -1.57971 255 0 0
-19.0389 -10.3422 -0.935446 255 0 0
-16.2968 -11.4003 -0.97249 255 0 0
-15.9793 -11.4064 -0.867014 255 0 0
-16.3472 -11.4199 -0.802207 255 0 0
-17.4439 -9.26003 0.327915 255 0 0
-15.9293 -11.5034 0.328257 255 0 0
-14.8956 -11.5 0.512948 255 0 0
-14.8685 -11.5029 0.66033 255 0 0
-17.3155 -11.2066 -2.18899 255 0 0
-20.0514 -10.3593 -1.94255 255 0 0
-18.3448 -10.4418 -0.416023 255 0 0
-16.5016 -11.4241 0.437643 255 0 0
-14.9041 -11.6853 0.317976 255 0 0
-17.2248 -9.3346 0.687415 255 0 0
-19.5969 -10.1277 -2.95169 255 0 0
-19.562 -10.4122 -1.59627 255 0 0
-18.7849 -10.6213 -1.4732 255 0 0
-16.7621 -11.2892 -1.47072 255 0 0
-16.7256 -11.3201 -0.824072 255 0 0
-16.5144 -11.3726 -0.786352 255 0 0
-15.6803 -11.4553 -0.812263 255 0 0
-16.4163 -11.4176 -0.572691 255 0 0
-17.0826 -10.5803 0.0494255 255 0 0
-16.4567 -11.4154 -0.0115966 255 0 0
-16.6 -11.4347 0.199788 255 0 0
-16.5697 -10.5882 0.556368 255 0 0
-18.8897 -10.4743 -2.3905 255 0 0
-18.4208 -10.673 -2.03786 255 0 0
-18.8953 -10.5536 -1.43746 255 0 0
-18.7083 -10.593 -0.922638 255 0 0
-15.9381 -11.469 -0.564989 255 0 0
-17.6385 -10.93 -1.25192 255 0 0
-16.1167 -11.4412 -0.776169 255 0 0
-19.2205 -10.1207 -3.85204 255 0 0
-16.1318 -11.2553 -3.07283 255 0 0
-19.1078 -10.4554 -2.3029 255 0 0
-16.2787 -11.1604 -1.92695 255 0 0
-15.128 -11.4381 0.577496 255 0 0
-19.9849 -10.0811 -3.40171 255 0 0
-17.3202 -10.5542 0.167998 255 0 0
-21.3785 -10.558 -4.80217 255 0 0
-19.3496 -10.5978 -4.75576 255 0 0
-21.8846 -10.494 -4.58868 255 0 0
-16.7845 -11.1357 -4.41476 255 0 0
-17.204 -11.1164 -4.36734 255 0 0
-17.0426 -11.0964 -4.3647 255 0 0
-15.502 -11.2796 -4.50864 255 0 0
-18.5948 -10.0738 -3.65589 255 0 0
-18.1262 -10.9804 -4.00338 255 0 0
-17.3039 -11.0924 -4.07836 255 0 0
-16.8988 -11.1366 -4.1214 255 0 0
-16.4646 -11.1977 -4.16005 255 0 0
-16.7926 -11.1639 -3.97334 255 0 0
-17.4912 -11.0734 -3.76634 255 0 0
-17.2958 -11.1236 -3.79471 255 0 0
-16.1062 -11.2426 -3.87265 255 0 0
-18.0314 -11.0225 -3.53839 255 0 0
-18.5191 -10.2738 -2.97524 255 0 0
-16.0002 -11.272 -3.71934 255 0 0
-16.0349 -11.2921 -3.69795 255 0 0
-15.9992 -11.2811 -3.63971 255 0 0
-18.5942 -10.3353 -2.82015 255 0 0
-18.5448 -10.3477 -2.82393 255 0 0
-16.5007 -11.219 -3.43865 255 0 0
-19.4597 -10.3983 -2.64408 255 0 0
-16.7958 -11.1947 -3.36551 255 0 0
-16.3577 -11.267 -3.40751 255 0 0
-16.4304 -11.245 -3.37199 255 0 0
-16.3906 -11.2574 -3.38317 255 0 0
-16.5832 -11.2439 -3.13566 255 0 0
-16.5065 -11.2568 -2.90769 255 0 0
-17.1187 -11.1938 -2.75958 255 0 0
-20.4405 -10.555 -1.89398 255 0 0
-16.6425 -11.2627 -2.81481 255 0 0
-19.3197 -10.4966 -1.81846 255 0 0
-18.6091 -10.551 -1.75862 255 0 0
-16.0085 -11.3404 -2.54324 255 0 0
-17.0468 -11.2306 -2.20524 255 0 0
-20.2023 -10.5863 -1.1883 255 0 0
-17.9235 -10.8678 -1.77203 255 0 0
-18.5873 -10.6045 -1.49667 255 0 0
-19.0276 -10.3214 -1.13533 255 0 0
-17.7589 -10.8975 -1.5926 255 0 0
-18.2809 -10.8471 -1.42658 255 0 0
-15.9536 -11.3732 -2.15229 255 0 0
-15.2581 -11.4338 -2.31422 255 0 0
-17.9371 -10.8583 -1.44248 255 0 0
-16.539 -11.3176 -1.93897 255 0 0
-18.9148 -10.49 -1.04599 255 0 0
-18.2515 -10.8574 -1.18982 255 0 0
-18.7215 -10.5557 -0.941355 255 0 0
-16.4073 -11.3454 -1.75676 255 0 0
-18.5954 -10.6393 -0.926128 255 0 0
-17.8356 -10.8975 -1.20842 255 0 0
-16.4492 -11.3416 -1.5943 255 0 0
-15.1712 -11.4633 -1.93891 255 0 0
-16.2022 -11.3836 -1.61477 255 0 0
-18.0763 -10.9054 -0.920589 255 0 0
-15.8627 -11.4206 -1.65442 255 0 0
-18.5237 -10.5058 -0.487402 255 0 0
-17.48 -10.983 -0.937863 255 0 0
-19.4328 -10.2842 -0.108285 255 0 0
-16.2848 -11.4144 -1.29539 255 0 0
-16.2182 -11.3945 -1.30305 255 0 0
-16.1052 -11.4165 -1.33185 255 0 0
-18.3752 -10.4143 -0.330965 255 0 0
-18.7926 -10.3668 -0.149099 255 0 0
-15.6904 -11.4308 -1.39225 255 0 0
-15.8611 -11.4513 -1.2985 255 0 0
-15.5089 -11.4579 -1.39832 255 0 0
-18.0305 -10.4502 -0.262798 255 0 0
-18.1438 -10.4408 -0.194522 255 0 0
-15.7092 -11.4473 -1.18484 255 0 0
-18.278 -8.71125 0.511456 255 0 0
-16.5798 -11.3828 -0.677797 255 0 0
-15.1219 -11.5236 -1.19527 255 0 0
-16.2168 -11.4048 -0.784563 255 0 0
-16.7729 -10.6036 -0.375143 255 0 0
-15.7435 -11.4655 -0.878682 255 0 0
-15.3722 -11.506 -0.880058 255 0 0
-16.7863 -10.6007 0.0710339 255 0 0
-15.3243 -11.5631 -0.131162 255 0 0
-21.4812 -10.5012 -4.81606 255 0 0
-21.0078 -10.543 -4.81761 255 0 0
-19.5654 -10.6731 -4.7732 255 0 0
-21.6619 -10.5293 -4.06782 255 0 0
-21.6767 -10.5625 -4.0656 255 0 0
-17.5014 -11.0233 -4.37582 255 0 0
-17.5727 -11.0523 -4.37014 255 0 0
-16.5516 -11.1599 -4.44707 255 0 0
-19.2257 -10.1448 -3.68632 255 0 0
-15.4873 -11.2893 -4.48158 255 0 0
-18.8893 -10.0924 -3.49749 255 0 0
-16.5534 -11.18 -4.18798 255 0 0
-15.9362 -11.2517 -4.19731 255 0 0
-15.6276 -11.2873 -4.22104 255 0 0
-21.195 -10.6356 -3.47786 255 0 0
-17.8989 -11.0169 -3.73792 255 0 0
-19.5757 -10.2031 -2.93211 255 0 0
-15.3663 -11.3306 -3.90505 255 0 0
-18.1802 -10.4721 -3.16194 255 0 0
-17.0412 -11.1733 -3.45801 255 0 0
-16.8766 -11.1846 -3.46334 255 0 0
-16.7298 -11.1988 -3.48765 255 0 0
-16.9633 -11.1668 -3.43665 255 0 0
-16.6183 -11.2132 -3.49162 255 0 0
-16.6042 -11.2185 -3.46952 255 0 0
-16.5375 -11.2275 -3.46967 255 0 0
-16.0533 -11.2736 -3.50837 255 0 0
-16.177 -11.2642 -3.47688 255 0 0
-16.6688 -11.2117 -3.3783 255 0 0
-19.5169 -10.3991 -2.62281 255 0 0
-15.467 -11.3529 -3.54549 255 0 0
-16.1731 -11.2702 -3.40214 255 0 0
-19.4477 -10.4477 -2.24961 255 0 0
-17.0139 -11.2094 -2.78695 255 0 0
-20.3953 -10.5697 -1.46404 255 0 0
-18.4888 -10.5716 -1.79712 255 0 0
-19.7497 -10.4921 -1.14907 255 0 0
-18.1157 -10.8442 -1.60416 255 0 0
-16.0417 -11.346 -1.95288 255 0 0
-16.3853 -11.3346 -1.81822 255 0 0
-16.3955 -11.3272 -1.77344 255 0 0
-17.6421 -10.9334 -1.26327 255 0 0
-16.409 -11.3515 -1.60331 255 0 0
-16.9811 -10.8384 -0.985825 255 0 0
-17.6559 -10.4942 -0.430687 255 0 0
-17.2684 -10.5315 -0.506846 255 0 0
-15.5609 -11.4578 -1.29421 255 0 0
-15.1866 -11.5146 -1.17827 255 0 0
-16.5287 -11.4027 -0.502492 255 0 0
-16.513 -11.4201 -0.486809 255 0 0
-16.5213 -11.4011 -0.464742 255 0 0
-17.2684 -10.5595 0.203421 255 0 0
-16.8521 -10.6171 0.178684 255 0 0
-15.3487 -11.5428 -0.378818 255 0 0
-16.3381 -11.4624 0.242175 255 0 0
-15.5001 -11.5548 -0.0994182 255 0 0
-15.8618 -11.5221 0.369518 255 0 0
-15.7115 -11.4089 0.520276 255 0 0
-20.4805 -10.6589 -4.70316 255 0 0
-20.9569 -10.6352 -4.65646 255 0 0
-19.2163 -10.0194 -3.91089 255 0 0
-18.1128 -10.998 -4.36862 255 0 0
-17.4598 -11.0557 -4.38155 255 0 0
-19.1477 -10.1358 -3.71441 255 0 0
-19.965 -9.92294 -3.54549 255 0 0
-17.1671 -11.1099 -4.12016 255 0 0
-19.8294 -10.157 -3.17163 255 0 0
-17.8545 -11.0447 -3.73834 255 0 0
-17.8695 -10.501 -3.05291 255 0 0
-18.7454 -10.3139 -2.82601 255 0 0
-18.7139 -10.3045 -2.71158 255 0 0
-15.9984 -11.2795 -3.5035 255 0 0
-19.1055 -10.4487 -2.64969 255 0 0
-16.8254 -11.2379 -2.78178 255 0 0
-18.2522 -10.777 -2.24944 255 0 0
-16.9481 -11.2302 -2.45479 255 0 0
-16.4904 -11.3292 -1.75508 255 0 0
-16.8358 -11.2966 -1.58466 255 0 0
-16.4331 -11.3431 -1.62701 255 0 0
-17.0594 -10.8335 -0.953365 255 0 0
-18.1989 -10.4256 -0.411962 255 0 0
-16.3341 -11.3991 -1.11102 255 0 0
-15.0951 -11.516 -1.43589 255 0 0
-17.4262 -10.52 -0.306879 255 0 0
-17.6971 -8.91543 0.251816 255 0 0
-17.5852 -9.0737 0.221223 255 0 0
-17.4103 -10.4697 -0.155982 255 0 0
-16.3777 -11.4092 -0.701412 255 0 0
-16.6731 -11.3918 -0.47324 255 0 0
-15.8359 -11.4971 -0.322174 255 0 0
-15.7822 -11.5128 -0.0770772 255 0 0
-14.9772 -11.571 -0.372766 255 0 0
-16.5092 -11.3388 0.557015 255 0 0
-20.1913 -10.6843 -4.74999 255 0 0
-19.6825 -10.7128 -4.74649 255 0 0
-20.0432 -10.6474 -4.68054 255 0 0
-18.1019 -10.9702 -4.57818 255 0 0
-18.361 -10.9304 -4.35854 255 0 0
-16.6852 -11.1511 -4.42038 255 0 0
-19.9471 -10.1077 -3.08101 255 0 0
-18.4602 -10.2313 -3.13808 255 0 0
-19.539 -10.1968 -2.95576 255 0 0
-18.4692 -10.4807 -3.15533 255 0 0
-16.697 -11.1907 -3.6778 255 0 0
-16.706 -11.1975 -3.13382 255 0 0
-18.2926 -10.7929 -2.22218 255 0 0
-18.9902 -10.5648 -1.50587 255 0 0
-19.8241 -10.4628 -0.586715 255 0 0
-17.0651 -10.7926 -1.38105 255 0 0
-15.3764 -11.4691 -1.67986 255 0 0
-16.5907 -11.399 -0.517528 255 0 0
-16.4308 -11.4366 -0.276342 255 0 0
-15.0636 -11.6151 0.2059 255 0 0
-17.9758 -10.9644 -4.6164 255 0 0
-16.9183 -11.1694 -3.65748 255 0 0
-16.3917 -11.245 -3.71574 255 0 0
-19.7829 -10.1877 -2.65753 255 0 0
-16.4558 -11.2357 -3.39703 255 0 0
-16.3296 -11.2741 -3.2019 255 0 0
-18.7159 -10.5256 -0.954204 255 0 0
-17.9535 -10.4489 -0.408765 255 0 0
-16.2702 -11.4101 -0.82871 255 0 0
-16.2852 -11.4753 -0.0146642 255 0 0
-17.3258 -10.4132 0.750588 255 0 0
-16.3336 -11.4629 0.188528 255 0 0
-20.4076 -10.3435 -2.57143 255 0 0
-17.8406 -10.6169 -2.85271 255 0 0
-16.1166 -11.3029 -3.14585 255 0 0
-19.9394 -10.4895 -1.95477 255 0 0
-17.9192 -10.8847 -1.17255 255 0 0
-17.8418 -10.4797 -0.475283 255 0 0
-17.7229 -10.5083 -0.38574 255 0 0
-16.0194 -11.425 -0.795959 255 0 0
-15.8095 -11.494 -0.560795 255 0 0
-14.9491 -11.5053 0.622816 255 0 0
-19.6199 -10.3067 -2.62245 255 0 0
-16.3636 -11.2737 -3.13956 255 0 0
-19.1425 -10.3048 -0.970105 255 0 0
-16.0015 -11.46 -0.569255 255 0 0
-16.3489 -11.4409 0.0160988 255 0 0
-18.998 -10.7308 -1.32327 255 0 0
-15.5752 -11.4594 -1.73196 255 0 0
-18.1487 -10.3808 -0.170795 255 0 0
-18.9865 -11.0449 -4.81718 255 0 0
-18.6034 -10.1675 -3.25504 255 0 0
-19.7246 -10.5192 -1.96138 255 0 0
-19.3904 -10.437 -1.38196 255 0 0
-19.2749 -10.2328 -2.91064 255 0 0
-18.9168 -10.4698 -2.95664 255 0 0
-19.8741 -10.1301 -3.61417 255 0 0
-19.7015 -10.5511 -0.864389 255 0 0
-17.1468 -10.8645 0.0357399 255 0 0
-21.4795 -10.5146 -4.81992 255 0 0
-21.6622 -10.5192 -4.59163 255 0 0
-21.952 -10.4811 -4.32135 255 0 0
-20.8748 -10.5762 -4.61407 255 0 0
-21.1538 -10.5892 -4.4151 255 0 0
-19.3226 -10.7575 -4.83971 255 0 0
-19.4492 -10.1011 -3.71402 255 0 0
-19.5615 -10.1997 -3.24137 255 0 0
-19.3278 -10.2264 -3.26102 255 0 0
-17.9287 -10.9976 -4.36153 255 0 0
-17.8459 -11.0004 -4.37917 255 0 0
-17.9098 -10.9942 -4.34665 255 0 0
-17.8492 -11.0072 -4.36127 255 0 0
-17.8893 -10.989 -4.32633 255 0 0
-19.7965 -10.189 -2.77028 255 0 0
-17.4123 -11.0518 -4.38549 255 0 0
-17.4639 -11.061 -4.35462 255 0 0
-16.8805 -11.1196 -4.45325 255 0 0
-19.6092 -10.2687 -2.56712 255 0 0
-17.5512 -11.0747 -3.76272 255 0 0
-17.9212 -11.0315 -3.542 255 0 0
-16.575 -11.1815 -4.16149 255 0 0
-16.3513 -11.2088 -4.04075 255 0 0
-17.297 -11.1366 -3.43609 255 0 0
-15.7637 -11.2626 -4.20663 255 0 0
-15.3803 -11.3009 -4.27082 255 0 0
-17.1736 -11.1624 -3.16734 255 0 0
-19.6179 -10.4878 -1.38769 255 0 0
-15.5195 -11.2971 -3.97899 255 0 0
-16.3489 -11.2542 -3.48825 255 0 0
-15.296 -11.3305 -4.05168 255 0 0
-15.9945 -11.2799 -3.64148 255 0 0
-18.6063 -10.5567 -1.75259 255 0 0
-15.4329 -11.3294 -3.87996 255 0 0
-19.0416 -10.312 -1.13064 255 0 0
-19.5814 -10.5276 -0.862898 255 0 0
-15.7538 -11.3436 -3.18468 255 0 0
-18.651 -10.6229 -0.94823 255 0 0
-16.122 -11.3391 -2.56175 255 0 0
-17.8324 -10.8968 -1.20803 255 0 0
-18.2251 -10.874 -0.923671 255 0 0
-18.8201 -10.3508 -0.197777 255 0 0
-16.7337 -11.2909 -1.95838 255 0 0
-17.7027 -8.94816 0.351073 255 0 0
-17.4808 -10.9838 -0.935797 255 0 0
-17.079 -10.567 -0.416774 255 0 0
-17.369 -10.5366 0.249282 255 0 0
-17.3608 -10.5513 0.404439 255 0 0
-17.0849 -10.5728 0.210181 255 0 0
-16.3271 -11.4389 -0.551982 255 0 0
-21.4478 -10.5169 -4.79057 255 0 0
-21.1096 -10.5575 -4.82749 255 0 0
-21.0646 -10.5615 -4.78458 255 0 0
-20.7881 -10.5998 -4.66654 255 0 0
-20.3429 -10.7036 -4.73958 255 0 0
-21.6577 -10.5502 -4.08445 255 0 0
-21.3205 -10.5659 -4.12371 255 0 0
-17.861 -10.9945 -4.64481 255 0 0
-17.553 -11.0451 -4.41687 255 0 0
-18.5085 -10.35 -2.85152 255 0 0
-17.6851 -11.0657 -3.74479 255 0 0
-17.0746 -11.1511 -3.63646 255 0 0
-16.6035 -11.2111 -3.65227 255 0 0
-15.4786 -11.3142 -4.23621 255 0 0
-19.6668 -10.4752 -1.55676 255 0 0
-16.2296 -11.2509 -3.714 255 0 0
-20.2046 -10.5923 -1.19313 255 0 0
-19.7176 -10.4704 -1.24114 255 0 0
-19.683 -10.4821 -1.24238 255 0 0
-16.2197 -11.2537 -3.54481 255 0 0
-15.5488 -11.3126 -3.88449 255 0 0
-19.0094 -10.493 -1.47992 255 0 0
-19.6867 -10.5094 -0.715224 255 0 0
-18.5582 -10.6104 -1.31816 255 0 0
-18.6213 -10.6073 -1.20155 255 0 0
-17.9573 -10.8587 -1.64294 255 0 0
-18.6183 -10.6388 -0.954401 255 0 0
-19.4192 -10.2808 -0.166854 255 0 0
-14.9325 -12.1649 -3.88705 255 0 0
-15.6171 -11.3741 -2.94789 255 0 0
-18.3136 -10.4121 -0.382221 255 0 0
-16.6427 -11.3069 -1.95256 255 0 0
-15.8477 -11.3716 -2.34456 255 0 0
-17.8751 -10.4747 -0.329056 255 0 0
-16.6387 -11.3059 -1.58125 255 0 0
-17.0043 -10.8461 -0.967514 255 0 0
-17.4053 -9.30067 0.336229 255 0 0
-17.268 -10.5324 -0.44923 255 0 0
-17.2331 -10.5529 -0.371697 255 0 0
-15.1708 -11.5747 -0.35246 255 0 0
-14.5844 -12.3612 -0.0659621 255 0 0
-21.3961 -10.5437 -4.77973 255 0 0
-21.2317 -10.5649 -4.58963 255 0 0
-20.5611 -10.6314 -4.67745 255 0 0
-20.4675 -10.6488 -4.69854 255 0 0
-18.7505 -10.8881 -4.58822 255 0 0
-16.8397 -11.1032 -4.40053 255 0 0
-18.5524 -10.2937 -2.89041 255 0 0
-16.6659 -11.1687 -4.08389 255 0 0
-16.0357 -11.2886 -3.49597 255 0 0
-18.5589 -10.6327 -1.27187 255 0 0
-18.0933 -10.8525 -1.58996 255 0 0
-18.565 -10.6278 -0.948778 255 0 0
-18.5135 -10.6353 -0.95069 255 0 0
-16.307 -11.3256 -2.3269 255 0 0
-16.6922 -11.3204 -1.58224 255 0 0
-16.3973 -11.3471 -1.71958 255 0 0
-17.0186 -10.5697 -0.494516 255 0 0
-15.4971 -11.4499 -1.67047 255 0 0
-16.454 -11.4305 -0.268454 255 0 0
-15.7787 -11.4807 -0.408114 255 0 0
-20.0412 -9.89544 -3.52202 255 0 0
-19.9186 -9.96826 -3.57128 255 0 0
-19.0098 -10.3307 -4.1929 255 0 0
-19.7917 -10.1494 -3.18361 255 0 0
-19.948 -10.1891 -2.75523 255 0 0
-17.7438 -11.0172 -4.21822 255 0 0
-15.5645 -11.326 -3.89562 255 0 0
-16.7104 -11.2402 -3.15312 255 0 0
-19.0209 -10.6376 -1.20557 255 0 0
-17.229 -11.1793 -2.46894 255 0 0
-18.9684 -10.3276 -0.326355 255 0 0
-18.5813 -10.3723 -0.369941 255 0 0
-18.2079 -10.8878 -0.926168 255 0 0
-18.5588 -10.3818 -0.272271 255 0 0
-16.0582 -11.3421 -2.28256 255 0 0
-17.9257 -10.4643 -0.308198 255 0 0
-17.7602 -10.4808 -0.379944 255 0 0
-17.4022 -10.5309 -0.28864 255 0 0
-16.5415 -11.4045 -0.41079 255 0 0
-21.2481 -10.5804 -4.66916 255 0 0
-19.9642 -9.88867 -3.5847 255 0 0
-19.7688 -9.94222 -3.61025 255 0 0
-18.7702 -10.2587 -3.02898 255 0 0
-16.8991 -11.1154 -4.48037 255 0 0
-17.8215 -10.4762 -2.94069 255 0 0
-17.8865 -10.5947 -2.77534 255 0 0
-17.7264 -10.9389 -1.163 255 0 0
-17.9703 -10.4518 -0.400928 255 0 0
-17.9965 -10.4404 -0.318893 255 0 0
-16.231 -11.366 -1.64792 255 0 0
-16.5484 -11.4056 -0.44911 255 0 0
-16.5195 -11.4153 -0.301298 255 0 0
-14.9423 -11.5017 0.636205 255 0 0
-14.8193 -11.5025 0.537458 255 0 0
-19.7151 -10.1915 -2.85244 255 0 0
-16.9135 -11.1093 -4.35632 255 0 0
-19.2158 -10.4612 -2.48909 255 0 0
-17.8702 -10.6297 -2.71545 255 0 0
-16.0144 -11.26 -3.86155 255 0 0
-19.0926 -10.447 -1.18285 255 0 0
-16.9399 -10.8092 -1.48197 255 0 0
-18.7648 -10.324 -2.8659 255 0 0
-19.1868 -10.4378 -1.71083 255 0 0
-19.2842 -10.4914 -2.32493 255 0 0
-19.4952 -10.4252 -1.94505 255 0 0
-19.4564 -10.1203 -3.72632 255 0 0
-19.2015 -10.1565 -3.67442 255 0 0
-18.6853 -10.2549 -4.19736 255 0 0
-18.6408 -10.3168 -2.80771 255 0 0
-18.8178 -8.63385 0.469429 255 0 0
-17.3563 -11.0522 -4.52664 255 0 0
-19.0421 -10.3112 -1.12442 255 0 0
-16.8074 -11.1349 -4.45985 255 0 0
-18.6473 -10.5835 -1.51105 255 0 0
-16.4547 -11.1559 -4.55497 255 0 0
-16.5693 -11.167 -4.41455 255 0 0
-17.4308 -11.1141 -3.38097 255 0 0
-18.5104 -10.6065 -1.4786 255 0 0
-18.7025 -10.617 -0.902513 255 0 0
-18.651 -10.625 -0.951278 255 0 0
-17.9739 -10.8477 -1.4396 255 0 0
-18.3534 -10.4 -0.374025 255 0 0
-16.4454 -11.2437 -3.49441 255 0 0
-17.5348 -9.12924 0.562094 255 0 0
-15.995 -11.2713 -3.72978 255 0 0
-15.526 -11.3241 -3.81019 255 0 0
-17.2763 -10.5326 -0.445091 255 0 0
-17.0042 -10.8449 -0.970492 255 0 0
-15.4539 -11.4623 -1.75519 255 0 0
-15.5114 -11.5665 0.291545 255 0 0
-21.8513 -10.4656 -4.95743 255 0 0
-21.24 -10.5639 -4.58851 255 0 0
-19.7529 -10.1646 -2.8247 255 0 0
-19.6069 -10.2669 -2.56789 255 0 0
-19.7099 -10.4679 -1.23617 255 0 0
-19.7699 -10.4754 -1.16609 255 0 0
-17.4101 -11.0602 -4.39299 255 0 0
-19.6778 -10.4817 -1.24712 255 0 0
-17.2981 -11.0647 -4.39548 255 0 0
-17.8104 -11.0535 -3.72583 255 0 0
-19.5861 -10.499 -1.10161 255 0 0
-18.5138 -10.6164 -1.32486 255 0 0
-18.6101 -10.6247 -0.998476 255 0 0
-18.4224 -10.6365 -1.18067 255 0 0
-18.4377 -10.6469 -1.00837 255 0 0
-18.4809 -10.6565 -0.808899 255 0 0
-17.9562 -10.8581 -1.6382 255 0 0
-18.5177 -10.3982 -0.292948 255 0 0
-17.5254 -10.9261 -1.09914 255 0 0
-16.3217 -11.2852 -2.85094 255 0 0
-17.3685 -10.5554 0.412906 255 0 0
-17.3149 -10.5526 0.344929 255 0 0
-17.272 -10.5695 0.434704 255 0 0
-16.3379 -11.4304 -0.580223 255 0 0
-14.5824 -12.3611 -0.06842 255 0 0
-21.2247 -10.5638 -4.64962 255 0 0
-18.9666 -10.3391 -4.11521 255 0 0
-18.4798 -10.285 -3.02536 255 0 0
-19.6757 -10.4816 -1.55221 255 0 0
-17.7413 -11.056 -3.71178 255 0 0
-18.5594 -10.6166 -1.31189 255 0 0
-18.4883 -10.6538 -0.854761 255 0 0
-18.457 -10.6655 -0.862346 255 0 0
-15.8088 -11.3287 -3.1902 255 0 0
-17.2307 -10.5514 -0.387016 255 0 0
-18.5638 -10.3944 -3.9617 255 0 0
-19.5889 -10.3757 -2.54892 255 0 0
-16.4635 -11.1641 -4.44809 255 0 0
-19.0249 -10.3202 -0.306505 255 0 0
-16.4417 -11.235 -3.49431 255 0 0
-17.8983 -10.4651 -0.40589 255 0 0
-17.2778 -10.5423 -0.3501 255 0 0
-15.3696 -11.4919 -1.29986 255 0 0
-21.9951 -10.473 -4.17867 255 0 0
-18.6226 -10.2901 -2.90219 255 0 0
-19.2877 -10.448 -1.69003 255 0 0
-19.1531 -10.4946 -1.86725 255 0 0
-19.1546 -10.5304 -1.63083 255 0 0
-16.9414 -10.6632 -1.7076 255 0 0
-16.5531 -11.396 -0.44362 255 0 0
-18.424 -10.6099 -1.81721 255 0 0
-16.952 -10.8236 -1.48095 255 0 0
-14.782 -11.505 0.542153 255 0 0
-20.4452 -10.2725 -2.69248 255 0 0
-19.1802 -10.4399 -1.59372 255 0 0
-18.8244 -10.6887 -1.21839 255 0 0
-17.4954 -9.18849 0.495209 255 0 0
-19.6015 -10.3454 -2.89736 255 0 0
-18.4146 -10.4585 -2.26815 255 0 0
-17.665 -11.1425 -3.08336 255 0 0
-21.9714 -10.4393 -5.00916 255 0 0
-19.8562 -10.1204 -4.07522 255 0 0
-20.3695 -10.6552 -4.90711 255 0 0
-19.1929 -10.1561 -3.67513 255 0 0
-18.9883 -10.1729 -3.68362 255 0 0
-20.1808 -10.6065 -1.12291 255 0 0
-19.339 -10.4439 -2.36597 255 0 0
-19.6708 -10.4675 -1.40232 255 0 0
-19.7266 -10.4904 -0.91551 255 0 0
-19.5685 -10.5033 -1.1453 255 0 0
-18.5232 -10.6012 -1.60695 255 0 0
-18.4062 -10.6401 -1.22175 255 0 0
-17.9153 -10.47 -0.277881 255 0 0
-18.0865 -10.9012 -0.90958 255 0 0
-17.4121 -11.0977 -3.64408 255 0 0
-17.9869 -10.9008 -1.00089 255 0 0
-17.4315 -11.1117 -3.37945 255 0 0
-16.8255 -11.1317 -4.46863 255 0 0
-17.3765 -10.5574 0.420172 255 0 0
-16.4154 -11.3378 -1.81166 255 0 0
-15.454 -11.4617 -1.75094 255 0 0
-19.6723 -10.164 -2.59612 255 0 0
-20.3214 -10.505 -1.75705 255 0 0
-20.2937 -10.5819 -1.60394 255 0 0
-19.7824 -10.4211 -1.67273 255 0 0
-19.7636 -10.4688 -1.1044 255 0 0
-19.6029 -10.4883 -1.09942 255 0 0
-19.5643 -10.4922 -1.181 255 0 0
-18.6108 -10.2643 -2.98265 255 0 0
-19.0966 -10.5238 -1.98413 255 0 0
-18.6014 -10.5887 -1.52127 255 0 0
-18.5911 -10.5986 -1.37705 255 0 0
-18.6761 -10.6235 -0.896541 255 0 0
-18.5712 -10.6332 -1.00482 255 0 0
-18.5006 -10.6454 -0.958294 255 0 0
-17.4548 -11.0955 -3.34692 255 0 0
-17.455 -11.1146 -3.32965 255 0 0
-17.3743 -10.5238 -0.386434 255 0 0
-17.3124 -10.5546 0.346987 255 0 0
-16.7397 -11.2154 -3.23089 255 0 0
-16.9787 -10.8458 -0.897282 255 0 0
-16.0576 -11.4191 -0.968043 255 0 0
-15.4585 -11.456 -1.68553 255 0 0
-15.6532 -11.5293 -0.262339 255 0 0
-15.5562 -11.5476 -0.126617 255 0 0
-14.8405 -11.4922 0.5086 255 0 0
-14.5983 -12.3654 -0.0219698 255 0 0
-21.222 -10.5601 -4.64537 255 0 0
-18.7207 -10.264 -2.90685 255 0 0
-19.3924 -10.4821 -1.66855 255 0 0
-18.5155 -10.5911 -1.66488 255 0 0
-18.6304 -10.6071 -1.26818 255 0 0
-18.6202 -10.6113 -1.2299 255 0 0
-18.4699 -10.652 -0.804313 255 0 0
-16.6673 -11.4182 0.39444 255 0 0
-14.8451 -11.5063 0.570257 255 0 0
-20.2835 -10.3143 -2.72477 255 0 0
-19.2721 -10.4189 -1.65131 255 0 0
-15.3711 -11.4905 -1.18332 255 0 0
-15.0434 -11.487 0.507793 255 0 0
-20.4414 -10.3353 -2.52612 255 0 0
-18.6596 -10.2702 -2.99275 255 0 0
-19.0696 -10.4646 -1.46544 255 0 0
-17.8856 -10.6172 -2.70713 255 0 0
-17.3027 -10.5578 0.425715 255 0 0
-18.7228 -10.3004 -2.8635 255 0 0
-19.1255 -10.5279 -1.78744 255 0 0
-17.2467 -10.5622 0.373568 255 0 0
-20.1538 -9.94386 -3.47221 255 0 0
-19.0153 -10.5607 -1.57763 255 0 0
-14.9074 -11.4967 0.518119 255 0 0
-18.9704 -10.3056 -4.18578 255 0 0
-19.5653 -10.432 -2.02081 255 0 0
-19.2533 -10.3924 -1.27805 255 0 0
-18.4769 -10.4185 -2.70443 255 0 0
-20.291 -10.2952 -3.06847 255 0 0
-18.2369 -10.5576 -3.19673 255 0 0
-18.3976 -10.4754 -2.32228 255 0 0
-19.5505 -10.3369 -1.96284 255 0 0
-17.2272 -10.6001 -0.581968 255 0 0
-19.5543 -10.4932 -1.14372 255 0 0
-19.5574 -10.4898 -1.19393 255 0 0
-19.1016 -10.3005 -0.395058 255 0 0
-17.4557 -9.23781 0.539697 255 0 0
-19.4305 -10.4392 -2.29141 255 0 0
-18.9934 -10.3062 -1.05969 255 0 0
-18.7643 -10.5101 -2.15291 255 0 0
-18.6805 -10.6004 -1.25192 255 0 0
-18.557 -10.2944 -2.90284 255 0 0
-18.7256 -10.3622 -3.96626 255 0 0
-18.6303 -10.3766 -3.94296 255 0 0
-18.3988 -10.6322 -1.2658 255 0 0
-17.8983 -10.4655 -0.335512 255 0 0
-18.2122 -10.8614 -1.19544 255 0 0
-17.3536 -10.4758 0.709296 255 0 0
-17.9866 -10.9031 -0.999231 255 0 0
-17.8555 -10.8686 -1.4113 255 0 0
-17.3117 -10.5425 0.235577 255 0 0
-17.811 -10.8878 -1.35411 255 0 0
-17.4855 -10.9749 -0.932102 255 0 0
-17.4475 -11.1049 -3.39033 255 0 0
-17.5013 -11.0571 -4.32472 255 0 0
-16.4828 -11.4092 -0.446796 255 0 0
-16.2699 -11.3928 -1.15437 255 0 0
-16.3008 -11.3182 -2.36867 255 0 0
-16.1976 -11.4929 0.315283 255 0 0
-16.0259 -11.4261 -0.883918 255 0 0
-15.5273 -11.5613 0.342477 255 0 0
-14.7414 -12.4086 -2.3347 255 0 0
-19.6506 -10.2192 -2.54083 255 0 0
-19.6314 -10.5012 -0.938098 255 0 0
-19.6518 -10.5054 -1.01252 255 0 0
-17.3739 -9.3429 0.519133 255 0 0
-17.3918 -9.32376 0.232584 255 0 0
-19.1205 -10.5066 -1.97471 255 0 0
-19.0929 -10.5177 -1.98643 255 0 0
-18.5572 -10.6451 -0.806375 255 0 0
-18.4708 -10.6396 -1.01918 255 0 0
-18.4527 -10.6588 -0.944691 255 0 0
-18.0886 -10.9048 -0.906247 255 0 0
-17.3555 -10.4998 0.61462 255 0 0
-17.2371 -10.5743 0.423698 255 0 0
-16.9768 -10.8487 -0.89514 255 0 0
-17.2744 -11.1577 -3.15349 255 0 0
-16.5422 -11.3852 -0.838013 255 0 0
-16.4819 -11.4216 -0.282961 255 0 0
-16.4016 -11.3558 -1.6714 255 0 0
-16.2454 -11.4678 -0.0668919 255 0 0
-15.5615 -11.5522 -0.123426 255 0 0
-15.4763 -11.4531 -1.70422 255 0 0
-15.4671 -11.4563 -1.67306 255 0 0
-15.4354 -11.452 -1.68779 255 0 0
-14.7571 -11.5076 0.516783 255 0 0
-14.7543 -11.5077 0.478702 255 0 0
-17.7079 -8.90651 0.570387 255 0 0
-20.8709 -10.6 -4.56054 255 0 0
-20.8403 -10.6135 -4.57174 255 0 0
-19.6708 -10.443 -1.59976 255 0 0
-17.382 -9.33357 0.373586 255 0 0
-19.0328 -10.5642 -1.58771 255 0 0
-18.5346 -10.497 -0.505298 255 0 0
-18.6593 -10.5712 -1.70517 255 0 0
-18.5631 -10.64 -0.864326 255 0 0
-18.5129 -10.6504 -0.788096 255 0 0
-18.4627 -10.6488 -0.874489 255 0 0
-17.5153 -10.9141 -1.13861 255 0 0
-16.5671 -11.309 -1.56905 255 0 0
-16.416 -11.3527 -1.63261 255 0 0
-16.2408 -11.4692 -0.0182504 255 0 0
-15.9057 -11.4335 -1.1464 255 0 0
-15.7902 -11.4875 -0.496396 255 0 0
-15.3944 -11.4931 -1.33977 255 0 0
-15.1113 -11.4729 0.489108 255 0 0
-14.8817 -11.4996 0.587807 255 0 0
-14.6343 -12.389 -0.177801 255 0 0
-18.4628 -10.3399 -2.64815 255 0 0
-18.5253 -10.6442 -0.875881 255 0 0
-17.2273 -10.5719 0.391157 255 0 0
-17.5117 -10.9631 -1.09063 255 0 0
-17.7036 -11.0534 -3.74868 255 0 0
-16.3001 -11.3223 -2.31896 255 0 0
-15.8711 -11.478 0.24741 255 0 0
-15.7865 -11.3311 -3.18341 255 0 0
-21.9937 -10.4812 -4.2151 255 0 0
-20.3011 -10.5415 -1.74692 255 0 0
-18.6943 -10.6045 -0.84866 255 0 0
-17.9362 -10.8304 -1.89979 255 0 0
-16.7117 -11.28 -1.97367 255 0 0
-16.6827 -11.2913 -2.00211 255 0 0
-15.0428 -11.4874 0.586545 255 0 0
-18.2384 -10.5231 -3.09792 255 0 0
-17.331 -10.5027 0.594012 255 0 0
-15.4418 -11.4439 -1.96603 255 0 0
-14.7112 -12.4239 -0.0678014 255 0 0
-19.6318 -10.2996 -2.63617 255 0 0
-19.0965 -10.5645 -1.92497 255 0 0
-18.2361 -10.5196 -3.11798 255 0 0
-16.219 -11.4306 -0.652524 255 0 0
-16.7804 -10.5919 -0.479166 255 0 0
-14.7158 -12.4188 -0.560654 255 0 0
-18.8495 -10.5857 -1.36672 255 0 0
-17.3299 -10.4975 0.124564 255 0 0
-17.4802 -9.21166 0.230618 255 0 0
-19.7087 -10.5039 -0.724795 255 0 0
-19.7502 -10.4664 -1.24962 255 0 0
-18.9506 -10.3762 -1.08769 255 0 0
-21.6536 -10.4929 -4.83876 255 0 0
-18.5468 -10.6439 -0.805773 255 0 0
-18.4998 -10.6063 -1.47769 255 0 0
-17.2228 -10.5642 0.326373 255 0 0
-17.2911 -10.5426 0.175007 255 0 0
-17.2481 -10.5393 -0.384263 255 0 0
-17.9242 -10.8664 -1.44543 255 0 0
-18.6814 -10.8991 -4.33882 255 0 0
-18.68 -10.8948 -4.37367 255 0 0
-16.4769 -11.4531 0.0618285 255 0 0
-16.1905 -11.4823 0.38304 255 0 0
-16.4849 -11.4103 -0.447169 255 0 0
-16.4018 -11.3562 -1.68687 255 0 0
-15.013 -11.4996 0.673431 255 0 0
-17.3943 -9.31902 0.222236 255 0 0
-19.0816 -10.3076 -0.377446 255 0 0
-19.835 -10.4619 -1.16508 255 0 0
-19.1563 -10.4106 -1.54272 255 0 0
-19.6213 -10.1387 -2.91667 255 0 0
-18.4359 -10.6512 -0.941408 255 0 0
-18.773 -10.5225 -2.1631 255 0 0
-18.4884 -10.5656 -1.78384 255 0 0
-16.7729 -10.6143 0.307857 255 0 0
-16.7215 -10.6282 0.373517 255 0 0
-17.9857 -10.8545 -1.63662 255 0 0
-17.922 -10.8346 -1.95624 255 0 0
-16.8989 -11.3215 -0.872762 255 0 0
-16.3206 -11.4576 0.197229 255 0 0
-16.4636 -11.4174 -0.321366 255 0 0
-16.2262 -11.4682 -0.105701 255 0 0
-16.3341 -11.4329 -0.574673 255 0 0
-16.3028 -11.4447 -0.57269 255 0 0
-15.7345 -11.4174 0.550268 255 0 0
-15.6338 -11.5293 -0.137772 255 0 0
-16.3065 -11.3278 -2.28375 255 0 0
-17.0935 -10.5932 0.445303 255 0 0
-18.0179 -10.8505 -1.69906 255 0 0
-16.3029 -11.474 0.252231 255 0 0
-17.7277 -11.0492 -3.71707 255 0 0
-16.0869 -11.3554 -2.27096 255 0 0
-19.1627 -10.4941 -1.82354 255 0 0
-18.7916 -10.5366 -2.11226 255 0 0
-18.737 -10.2547 -2.95308 255 0 0
-17.7059 -10.5875 -2.96578 255 0 0
-17.5249 -11.0446 -4.39951 255 0 0
-16.4117 -11.3309 -1.88492 255 0 0
-17.0652 -11.1057 -4.25628 255 0 0
-16.0558 -11.348 -2.2857 255 0 0
-14.8582 -11.4983 0.500701 255 0 0
-17.3961 -9.88575 0.478891 255 0 0
-18.7067 -10.6303 -0.844728 255 0 0
-18.5664 -10.5905 -1.59618 255 0 0
-16.7852 -10.5868 -0.500383 255 0 0
-18.8309 -10.5193 -2.30583 255 0 0
-18.4834 -10.3723 -2.38959 255 0 0
-19.8121 -10.2406 -2.57068 255 0 0
-18.4857 -10.4785 -2.22541 255 0 0
-18.476 -10.3812 -2.46071 255 0 0
-17.7466 -10.8635 -1.93846 255 0 0
-17.9246 -10.6436 -2.42444 255 0 0
-18.0363 -10.6459 -2.64138 255 0 0
-14.6414 -12.3961 -0.130033 255 0 0
-16.0677 -11.3914 -0.676528 255 0 0
-19.4156 -10.4249 -1.88472 255 0 0
-18.9828 -10.4893 -2.01502 255 0 0
-17.6495 -8.9813 0.498198 255 0 0
-19.7041 -10.508 -0.722826 255 0 0
-18.3937 -10.396 -0.363562 255 0 0
-18.9832 -10.3527 -1.10372 255 0 0
-18.5519 -10.6364 -0.96467 255 0 0
-18.3915 -10.6552 -0.966664 255 0 0
-18.6052 -10.6268 -1.2025 255 0 0
-16.6755 -11.4263 0.264033 255 0 0
-16.5048 -11.4509 0.234152 255 0 0
-16.343 -11.4881 0.323816 255 0 0
-21.093 -10.5674 -4.82282 255 0 0
-20.3733 -10.6544 -4.84872 255 0 0
-15.7183 -11.519 0.0226785 255 0 0
-15.7389 -11.5102 -0.00977303 255 0 0
-15.6848 -11.4949 -0.432475 255 0 0
-15.5555 -11.5105 -0.489094 255 0 0
-17.4282 -11.1612 -2.74947 255 0 0
-18.6816 -10.8885 -4.44291 255 0 0
-15.9153 -11.4254 -1.30441 255 0 0
-17.6681 -11.0517 -3.87773 255 0 0
-14.6932 -12.4625 -1.96137 255 0 0
-16.0098 -11.2379 -4.23318 255 0 0
-17.3804 -9.33325 0.500334 255 0 0
-17.3402 -10.479 0.653581 255 0 0
-18.9632 -10.311 -1.02169 255 0 0
-18.5793 -10.644 -0.850599 255 0 0
-21.2111 -10.6372 -3.50253 255 0 0
-18.582 -10.5974 -1.48142 255 0 0
-21.8271 -10.4683 -5.00439 255 0 0
-16.4712 -11.4535 0.120541 255 0 0
-16.3246 -11.4583 0.193138 255 0 0
-16.2042 -11.4942 0.30343 255 0 0
-18.7124 -10.3041 -2.88053 255 0 0
-16.5228 -11.3809 -0.721489 255 0 0
-15.6149 -11.532 0.0423097 255 0 0
-15.2786 -11.6019 0.326509 255 0 0
-16.8174 -11.3086 -1.59299 255 0 0
-15.9097 -11.4753 -0.558191 255 0 0
-15.6464 -11.5284 -0.27071 255 0 0
-16.7231 -11.299 -1.93151 255 0 0
-17.1838 -11.2016 -2.48629 255 0 0
-16.6872 -11.291 -2.05527 255 0 0
-15.0775 -11.5894 -0.198793 255 0 0
-16.4208 -11.3465 -1.90824 255 0 0
-15.5144 -11.4881 -0.914384 255 0 0
-16.0991 -11.3408 -2.19391 255 0 0
-15.4597 -11.4646 -1.67426 255 0 0
-14.9917 -11.5182 -1.46004 255 0 0
-15.569 -11.3151 -3.85084 255 0 0
-19.1341 -10.242 -0.965498 255 0 0
-18.7251 -10.2608 -2.99509 255 0 0
-16.2284 -11.4621 0.138527 255 0 0
-16.3419 -11.4364 -0.619912 255 0 0
-15.0563 -11.499 0.696934 255 0 0
-14.8481 -11.5109 0.600168 255 0 0
-16.2667 -11.4043 -1.13844 255 0 0
-16.331 -11.3846 -1.32471 255 0 0
-15.8243 -11.4355 -0.99727 255 0 0
-16.6635 -11.1852 -3.67415 255 0 0
-15.7076 -11.2766 -4.0875 255 0 0
-17.2121 -10.5736 0.299412 255 0 0
-19.64 -10.3082 -2.48945 255 0 0
-16.6493 -11.4163 0.254389 255 0 0
-16.338 -11.4494 0.00218926 255 0 0
-15.8599 -11.505 0.166931 255 0 0
-15.6762 -11.5593 0.260363 255 0 0
-16.2871 -11.3927 -1.12979 255 0 0
-16.4482 -11.3345 -1.67858 255 0 0
-15.4267 -11.4936 -1.29152 255 0 0
-16.4161 -11.2451 -3.41415 255 0 0
-16.1886 -11.2617 -3.49983 255 0 0
-18.1145 -10.4424 -0.409594 255 0 0
-18.1501 -10.5634 -2.88336 255 0 0
-16.4051 -11.4078 -0.698759 255 0 0
-16.1964 -11.4349 -0.59117 255 0 0
-16.313 -11.4074 -0.857314 255 0 0
-16.7186 -11.312 -1.52574 255 0 0
-14.7473 -11.5056 0.48016 255 0 0
-15.5463 -11.3239 -3.86538 255 0 0
-19.6978 -10.2539 -2.32081 255 0 0
-18.4647 -10.3992 -2.53443 255 0 0
-16.5234 -11.417 -0.406347 255 0 0
-14.8115 -11.5062 0.536878 255 0 0
-15.3858 -11.4578 -1.72613 255 0 0
-17.6766 -10.6972 -2.13492 255 0 0
-19.2222 -10.4344 -2.01256 255 0 0
-18.6526 -10.5716 -2.06853 255 0 0
-16.1403 -11.4368 -0.695827 255 0 0
-17.0248 -11.1527 -1.57714 255 0 0
-19.5054 -10.5283 -0.877308 255 0 0
-18.1534 -10.4281 -0.409779 255 0 0
-16.7404 -10.6135 0.207657 255 0 0
-18.7417 -10.483 -0.959871 255 0 0
-16.6723 -11.4316 0.266847 255 0 0
-16.5543 -11.4362 0.211568 255 0 0
-20.3242 -10.5294 -1.87126 255 0 0
-16.4685 -11.4503 0.123918 255 0 0
-15.7557 -11.539 0.307492 255 0 0
-16.5732 -11.3968 -0.25845 255 0 0
-17.4812 -10.9806 -0.935881 255 0 0
-14.747 -11.5097 0.499429 255 0 0
-15.833 -11.5011 -0.0332554 255 0 0
-16.1221 -11.4567 -0.188865 255 0 0
-18.5915 -10.5485 -1.77933 255 0 0
-15.7173 -11.5221 -0.0923863 255 0 0
-15.8448 -11.4913 -0.17747 255 0 0
-15.6378 -11.5405 -0.0856815 255 0 0
-16.3347 -11.4411 -0.583412 255 0 0
-17.9915 -10.8554 -1.64057 255 0 0
-19.0081 -10.4823 -2.42171 255 0 0
-15.2474 -11.5718 -0.178528 255 0 0
-15.806 -11.4913 -0.511427 255 0 0
-16.3774 -11.39 -0.858979 255 0 0
-16.321 -11.3921 -0.89047 255 0 0
-21.9242 -10.4869 -4.32542 255 0 0
-15.6964 -11.4745 -0.752906 255 0 0
-18.7274 -10.2493 -2.90368 255 0 0
-22.3747 -10.3996 -4.93905 255 0 0
-18.8012 -10.2506 -2.9875 255 0 0
-22.2475 -10.4147 -4.91342 255 0 0
-18.5987 -10.2857 -2.9156 255 0 0
-15.5802 -11.4872 -0.938563 255 0 0
-15.488 -11.4882 -0.907963 255 0 0
-15.5376 -11.4839 -0.947378 255 0 0
-15.5479 -11.4659 -1.29488 255 0 0
-20.5369 -10.6347 -4.69695 255 0 0
-15.0037 -11.5433 -1.04131 255 0 0
-17.4337 -11.1626 -2.75059 255 0 0
-18.7508 -10.3474 -4.00521 255 0 0
-17.5203 -11.1247 -3.09992 255 0 0
-16.1132 -11.3537 -2.2317 255 0 0
-14.9882 -11.518 -1.45592 255 0 0
-15.4892 -11.4276 -2.06873 255 0 0
-17.2342 -11.1377 -3.58818 255 0 0
-17.5461 -11.0519 -4.35483 255 0 0
-16.1617 -11.2737 -3.39518 255 0 0
-15.9597 -11.3026 -3.53548 255 0 0
-16.5165 -11.1932 -4.14827 255 0 0
-15.5276 -11.3237 -3.80029 255 0 0
-17.6391 -8.99359 0.514737 255 0 0
-17.4452 -9.25945 0.491781 255 0 0
-19.3092 -10.2873 -0.179389 255 0 0
-19.447 -10.2796 -0.341641 255 0 0
-19.7047 -10.5209 -0.716085 255 0 0
-16.5212 -11.3299 0.57676 255 0 0
-18.9596 -10.3468 -1.054 255 0 0
-17.271 -10.5414 -0.303917 255 0 0
-16.4994 -11.4609 0.236256 255 0 0
-15.9873 -11.5028 0.370488 255 0 0
-19.6856 -10.4296 -1.68781 255 0 0
-18.21 -10.8555 -1.19707 255 0 0
-16.2213 -11.4798 -0.0532538 255 0 0
-18.4529 -10.6164 -1.47548 255 0 0
-16.3414 -11.4343 -0.209675 255 0 0
-16.5872 -11.3895 -0.392432 255 0 0
-19.1958 -10.4904 -1.98996 255 0 0
-16.3594 -11.4157 -0.563768 255 0 0
-16.6162 -11.3643 -0.772687 255 0 0
-19.6595 -10.2815 -2.7517 255 0 0
-16.8839 -11.3224 -1.05493 255 0 0
-17.9378 -10.8149 -1.98081 255 0 0
-15.2949 -11.5457 -0.380336 255 0 0
-18.297 -10.77 -2.25595 255 0 0
-15.2711 -11.5482 -0.384388 255 0 0
-14.996 -11.5727 -0.367457 255 0 0
-18.5563 -10.2967 -2.91455 255 0 0
-16.2031 -11.3969 -1.32037 255 0 0
-15.3786 -11.5078 -0.844175 255 0 0
-15.4251 -11.4913 -0.923657 255 0 0
-21.1623 -10.5551 -4.66729 255 0 0
-16.4433 -11.3342 -1.72566 255 0 0
-15.6107 -11.4567 -1.30909 255 0 0
-16.4952 -11.3223 -1.94576 255 0 0
-15.3753 -11.4978 -1.3242 255 0 0
-16.1977 -11.2676 -3.37017 255 0 0
-16.1659 -11.2638 -3.42151 255 0 0
-16.0124 -11.2778 -3.64178 255 0 0
-16.8259 -11.1296 -4.44026 255 0 0
-18.0672 -8.73335 0.506379 255 0 0
-17.7141 -8.91638 0.436949 255 0 0
-18.8564 -10.3372 -0.344284 255 0 0
-19.7347 -10.4757 -1.24055 255 0 0
-18.5493 -10.6448 -0.847475 255 0 0
-19.659 -10.4721 -1.39318 255 0 0
-19.1259 -10.5591 -1.73886 255 0 0
-15.2628 -11.5944 0.290535 255 0 0
-16.1919 -11.4539 -0.277695 255 0 0
-16.332 -11.4137 -0.533419 255 0 0
-16.4417 -11.3902 -0.772228 255 0 0
-15.0432 -11.5796 -0.290212 255 0 0
-16.97 -10.6597 -1.70607 255 0 0
-18.7221 -10.2768 -2.93771 255 0 0
-18.4742 -10.4393 -2.77977 255 0 0
-16.8154 -11.3012 -1.59306 255 0 0
-16.6527 -11.3125 -1.57814 255 0 0
-15.5408 -11.497 -0.909947 255 0 0
-17.9857 -10.6245 -2.72748 255 0 0
-15.7648 -11.4398 -1.25444 255 0 0
-16.3753 -11.3321 -1.79685 255 0 0
-18.306 -10.2616 -3.59739 255 0 0
-15.5768 -11.4332 -1.7212 255 0 0
-17.2819 -11.1567 -3.09404 255 0 0
-17.8234 -11.029 -3.80661 255 0 0
-16.8009 -11.2204 -3.14679 255 0 0
-16.1314 -11.3009 -2.86465 255 0 0
-15.8046 -11.3341 -3.1914 255 0 0
-17.3606 -10.4672 0.61126 255 0 0
-17.2402 -10.5519 -0.23332 255 0 0
-20.2734 -10.5761 -1.44935 255 0 0
-18.9013 -10.46 -1.02623 255 0 0
-15.7858 -11.5209 0.202102 255 0 0
-15.528 -11.5444 -0.106136 255 0 0
-16.65 -11.3621 -0.769406 255 0 0
-18.2936 -10.7768 -2.26711 255 0 0
-15.9246 -11.435 -0.964019 255 0 0
-15.7577 -11.4373 -1.27228 255 0 0
-18.4609 -10.368 -3.21498 255 0 0
-16.7258 -11.3048 -1.93733 255 0 0
-16.3949 -11.3429 -1.78309 255 0 0
-16.7023 -11.2235 -3.16706 255 0 0
-18.1604 -10.4315 -0.397116 255 0 0
-15.0558 -11.4913 0.63232 255 0 0
-14.8814 -11.5003 0.58758 255 0 0
-18.0036 -10.8634 -1.61349 255 0 0
-16.4996 -11.3869 -0.779502 255 0 0
-18.7312 -10.3131 -4.15651 255 0 0
-17.407 -9.29787 0.490073 255 0 0
-16.5588 -11.4216 0.0809572 255 0 0
-19.3617 -10.462 -2.15357 255 0 0
-17.6084 -9.01551 0.554376 255 0 0
-14.9984 -11.5034 0.6393 255 0 0
-18.3417 -10.706 -2.08706 255 0 0
-19.0082 -10.618 -1.8259 255 0 0
-18.6718 -10.6097 -0.906214 255 0 0
-16.6291 -11.3258 0.0944395 255 0 0
-17.546 -9.12156 0.372132 255 0 0
-16.7469 -10.6107 0.20419 255 0 0
-19.3324 -10.2806 -0.190569 255 0 0
-17.1205 -10.567 0.0878078 255 0 0
-17.0148 -10.5848 0.0803507 255 0 0
-19.7581 -10.2258 -0.290667 255 0 0
-14.6996 -11.518 0.497818 255 0 0
-19.1161 -10.3082 -0.334042 255 0 0
-15.6931 -11.5593 0.280561 255 0 0
-19.1087 -10.3059 -0.395058 255 0 0
-18.3884 -10.4184 -0.330395 255 0 0
-18.452 -10.3944 -0.39243 255 0 0
-18.2114 -10.4207 -0.404129 255 0 0
-17.4261 -10.5263 -0.301268 255 0 0
-16.3996 -11.4414 -0.0263406 255 0 0
-15.0932 -11.6066 0.158039 255 0 0
-17.6702 -10.4889 -0.419033 255 0 0
-15.9078 -11.4837 -0.15328 255 0 0
-16.4398 -11.4354 -0.279199 255 0 0
-15.8464 -11.4914 -0.178033 255 0 0
-15.5137 -11.5536 -0.120684 255 0 0
-16.3666 -11.412 -0.290054 255 0 0
-16.2029 -11.4622 -0.261676 255 0 0
-16.2468 -11.4538 -0.275138 255 0 0
-16.1656 -11.4703 -0.264607 255 0 0
-16.2871 -11.4292 -0.28961 255 0 0
-16.3036 -11.4304 -0.30469 255 0 0
-16.0917 -11.4956 -0.277824 255 0 0
-15.0364 -11.5979 -0.156644 255 0 0
-15.5229 -11.5298 -0.273654 255 0 0
-16.5298 -11.4107 -0.486472 255 0 0
-16.5139 -11.3929 -0.533933 255 0 0
-15.215 -11.5693 -0.286774 255 0 0
-14.9425 -11.5946 -0.273438 255 0 0
-16.5693 -11.3794 -0.693388 255 0 0
-16.4227 -11.3872 -0.74103 255 0 0
-16.3907 -11.393 -0.743371 255 0 0
-16.3854 -11.3939 -0.818508 255 0 0
-16.1187 -11.4355 -0.84463 255 0 0
-15.5059 -11.5096 -0.714451 255 0 0
-16.2353 -11.3957 -0.984243 255 0 0
-15.7601 -11.4516 -0.911243 255 0 0
-15.3557 -11.5035 -0.932121 255 0 0
-16.4269 -11.3643 -1.30099 255 0 0
-15.9343 -11.4228 -1.23685 255 0 0
-15.7773 -11.4386 -1.23825 255 0 0
-17.1057 -10.6689 -1.63653 255 0 0
-15.6012 -11.4573 -1.24988 255 0 0
-15.0507 -11.5378 -1.1035 255 0 0
-16.7835 -11.2982 -1.60806 255 0 0
-15.511 -11.4664 -1.29458 255 0 0
-16.6834 -11.3025 -1.70867 255 0 0
-15.4447 -11.4778 -1.35408 255 0 0
-16.3289 -11.3562 -1.64055 255 0 0
-16.8618 -11.2781 -1.89716 255 0 0
-16.4246 -11.3294 -1.80304 255 0 0
-19.6314 -10.1652 -2.85206 255 0 0
-15.8086 -11.4123 -1.69157 255 0 0
-16.4496 -11.3382 -1.91548 255 0 0
-16.7477 -11.2836 -2.19437 255 0 0
-18.7251 -10.26 -2.94906 255 0 0
-18.5388 -10.2944 -2.95665 255 0 0
-18.4697 -10.2671 -2.9998 255 0 0
-15.8445 -11.3824 -2.29197 255 0 0
-15.0746 -11.4709 -2.09187 255 0 0
-17.5198 -11.1138 -3.13915 255 0 0
-15.418 -11.4071 -2.36561 255 0 0
-17.2347 -11.1473 -3.32926 255 0 0
-18.6505 -10.3789 -3.9617 255 0 0
-18.4834 -10.3718 -3.96509 255 0 0
-20.3689 -10.6557 -4.90176 255 0 0
-15.725 -11.3293 -3.20622 255 0 0
-16.158 -11.2625 -3.45395 255 0 0
-17.9729 -10.9894 -4.34496 255 0 0
-18.1499 -10.9698 -4.56331 255 0 0
-15.3337 -11.37 -3.28881 255 0 0
-15.5851 -11.3253 -3.63501 255 0 0
-18.3756 -8.68213 0.515894 255 0 0
-17.6078 -9.04097 0.569863 255 0 0
-17.7121 -8.92155 0.348919 255 0 0
-17.4806 -9.22986 0.317386 255 0 0
-16.7901 -10.6237 0.343232 255 0 0
-14.6814 -11.516 0.696455 255 0 0
-17.2778 -10.5607 0.208117 255 0 0
-16.097 -11.4958 0.387444 255 0 0
-14.7873 -11.5004 0.477517 255 0 0
-16.4908 -11.4444 0.2372 255 0 0
-18.6754 -10.3668 -0.227075 255 0 0
-16.1235 -11.4917 0.284393 255 0 0
-15.3173 -11.5468 0.360993 255 0 0
-18.4102 -10.3878 -0.352361 255 0 0
-14.6721 -12.1843 0.244937 255 0 0
-17.0227 -10.5685 -0.463566 255 0 0
-16.2277 -11.4709 -0.205081 255 0 0
-16.2899 -11.4566 -0.218759 255 0 0
-18.8851 -10.3915 -0.959039 255 0 0
-14.9676 -11.6007 -0.136531 255 0 0
-19.0112 -10.3143 -1.07032 255 0 0
-16.461 -11.406 -0.514451 255 0 0
-14.9732 -11.5849 -0.220635 255 0 0
-16.406 -11.4151 -0.504681 255 0 0
-20.4722 -10.5603 -1.43149 255 0 0
-16.2364 -11.4306 -0.574461 255 0 0
-15.8426 -11.4881 -0.505868 255 0 0
-16.2696 -11.4256 -0.595938 255 0 0
-18.2216 -10.8453 -1.18277 255 0 0
-15.9728 -11.4434 -0.682172 255 0 0
-17.8149 -10.8855 -1.27037 255 0 0
-16.2855 -11.3926 -0.894933 255 0 0
-16.4781 -11.3984 -1.05 255 0 0
-15.4019 -11.5068 -0.854292 255 0 0
-18.0585 -10.8471 -1.60222 255 0 0
-18.5322 -10.5674 -1.76484 255 0 0
-15.3612 -11.4947 -1.18583 255 0 0
-15.5809 -11.4598 -1.31584 255 0 0
-15.5437 -11.4604 -1.31839 255 0 0
-16.4588 -11.3322 -1.60267 255 0 0
-19.6422 -10.3168 -2.53539 255 0 0
-15.6037 -11.4467 -1.39711 255 0 0
-16.2609 -11.3675 -1.62158 255 0 0
-15.3283 -11.4834 -1.41352 255 0 0
-16.3854 -11.3413 -1.83615 255 0 0
-17.759 -11.1368 -2.44028 255 0 0
-16.0328 -11.3764 -1.96597 255 0 0
-18.8246 -10.2266 -3.00434 255 0 0
-17.5701 -11.1423 -2.74833 255 0 0
-16.0243 -11.3576 -2.23038 255 0 0
-16.6431 -11.2798 -2.53623 255 0 0
-15.5553 -11.4079 -2.30527 255 0 0
-16.6904 -11.2562 -2.77808 255 0 0
-16.1218 -11.3086 -2.74103 255 0 0
-15.5008 -11.4019 -2.57168 255 0 0
-17.2969 -11.1361 -3.30606 255 0 0
-17.7549 -11.0485 -3.69343 255 0 0
-16.4918 -11.2529 -3.18731 255 0 0
-20.3926 -10.6917 -4.89302 255 0 0
-16.3928 -11.2546 -3.40312 255 0 0
-15.8957 -11.2998 -3.18926 255 0 0
-19.3371 -10.6802 -4.76573 255 0 0
-15.9899 -11.2806 -3.61869 255 0 0
-15.4734 -11.3552 -3.54958 255 0 0
-16.01 -11.2527 -4.20147 255 0 0
-16.9135 -10.5443 0.783682 255 0 0
-15.7655 -11.4104 0.52322 255 0 0
-19.1692 -10.3086 -0.142582 255 0 0
-16.4487 -11.475 0.324681 255 0 0
-14.7912 -11.4914 0.49424 255 0 0
-18.3904 -10.3957 -0.372272 255 0 0
-17.5022 -10.515 -0.325065 255 0 0
-19.6911 -10.5197 -0.711144 255 0 0
-19.4766 -10.5086 -0.807238 255 0 0
-19.5586 -10.5619 -0.87662 255 0 0
-15.4988 -11.573 -0.0771437 255 0 0
-15.6266 -11.5198 -0.314745 255 0 0
-16.4693 -11.4057 -0.533573 255 0 0
-17.1252 -10.825 -0.951695 255 0 0
-19.6911 -10.4309 -1.6902 255 0 0
-15.5834 -11.5049 -0.860737 255 0 0
-16.2279 -11.4052 -1.07552 255 0 0
-15.4104 -11.5057 -0.881203 255 0 0
-18.7057 -10.5624 -1.74993 255 0 0
-20.4343 -10.3223 -2.53913 255 0 0
-15.8036 -11.4437 -1.63845 255 0 0
-21.4114 -10.607 -3.48959 255 0 0
-15.4915 -11.4226 -2.31695 255 0 0
-17.5559 -11.1253 -3.08294 255 0 0
-21.6545 -10.5083 -4.59492 255 0 0
-17.2689 -11.1619 -3.06385 255 0 0
-16.5092 -11.2769 -2.82815 255 0 0
-16.7339 -11.2518 -3.15131 255 0 0
-17.183 -11.1333 -3.578 255 0 0
