-14.585 -12.182 -0.505318 255 0 0
-13.9132 -12.3669 -0.362377 255 0 0
-14.1098 -12.3062 -0.442523 255 0 0
-16.3764 -11.0734 -1.3248 255 0 0
-14.8058 -12.1049 -0.711924 255 0 0
-15.82 -11.4731 -1.19115 255 0 0
-15.7801 -11.5 -1.28251 255 0 0
-14.3811 -12.2285 -0.744756 255 0 0
-17.2821 -10.8083 -1.96605 255 0 0
-14.0194 -12.3373 -0.741148 255 0 0
-13.8034 -12.3871 -0.667667 255 0 0
-14.6735 -12.1255 -1.05895 255 0 0
-16.8872 -10.9314 -2.0006 255 0 0
-16.7927 -10.9694 -1.9804 255 0 0
-13.1704 -12.5873 -0.591433 255 0 0
-17.0221 -10.8886 -2.14184 255 0 0
-14.415 -12.1999 -1.17526 255 0 0
-17.584 -10.484 -2.50839 255 0 0
-17.3789 -10.5578 -2.51718 255 0 0
-19.0328 -10.7933 -3.13034 255 0 0
-15.1139 -11.9804 -2.16591 255 0 0
-15.2938 -11.9165 -2.30112 255 0 0
-13.5134 -12.4604 -1.57017 255 0 0
-14.4037 -12.2139 -1.97498 255 0 0
-13.6408 -12.442 -1.94373 255 0 0
-14.3007 -12.2245 -2.26149 255 0 0
-15.4218 -11.8726 -2.80996 255 0 0
-14.3748 -12.1827 -2.90106 255 0 0
-13.8839 -12.3597 -2.94617 255 0 0
-15.1917 -11.1752 0.887125 255 0 0
-17.0274 -10.6413 0.241728 255 0 0
-14.6704 -11.3356 0.705379 255 0 0
-14.6391 -11.341 0.58423 255 0 0
-16.6358 -10.7584 0.0421769 255 0 0
-14.1357 -12.3195 0.597738 255 0 0
-13.6408 -12.4593 0.686292 255 0 0
-17.2377 -10.7763 -0.451157 255 0 0
-13.3245 -12.5633 0.673908 255 0 0
-13.374 -12.5461 0.607446 255 0 0
-16.5257 -11.062 -0.417285 255 0 0
-14.0856 -12.3292 0.369153 255 0 0
-14.3412 -12.2424 0.277715 255 0 0
-16.5705 -10.923 -0.507828 255 0 0
-13.5275 -12.5084 0.501136 255 0 0
-13.7297 -12.4511 0.320612 255 0 0
-14.4469 -12.2197 0.0856789 255 0 0
-13.5923 -12.4822 0.304054 255 0 0
-14.4078 -12.2365 0.0450299 255 0 0
-13.5486 -12.4934 0.300958 255 0 0
-14.3698 -12.2426 0.0410521 255 0 0
-13.5727 -12.4846 0.273489 255 0 0
-16.4498 -11.0966 -0.756068 255 0 0
-13.0697 -12.6274 0.375028 255 0 0
-14.3001 -12.2746 -0.00420195 255 0 0
-13.7143 -12.427 0.150076 255 0 0
-14.019 -12.3604 0.0325659 255 0 0
-13.2445 -12.5959 0.261651 255 0 0
-14.6661 -12.142 -0.285977 255 0 0
-17.411 -10.7716 -1.30923 255 0 0
-13.1809 -12.5917 0.107504 255 0 0
-13.1493 -12.6041 0.1047 255 0 0
-13.8695 -12.3837 -0.190598 255 0 0
-14.7701 -12.1164 -0.689449 255 0 0
-14.2599 -12.2821 -0.535852 255 0 0
-16.2912 -11.1055 -1.34098 255 0 0
-14.1997 -12.286 -0.540449 255 0 0
-14.4925 -12.1942 -0.840856 255 0 0
-14.6105 -12.149 -1.0273 255 0 0
-14.468 -12.1897 -1.19537 255 0 0
-16.7323 -10.9563 -2.13373 255 0 0
-16.8755 -10.9105 -2.36608 255 0 0
-16.054 -11.3961 -2.07255 255 0 0
-16.3676 -10.858 -2.47672 255 0 0
-16.4459 -10.8213 -2.53586 255 0 0
-16.5358 -10.7978 -2.58395 255 0 0
-15.1216 -12.0055 -1.94559 255 0 0
-15.0295 -12.0066 -1.93627 255 0 0
-14.0314 -12.3274 -1.66504 255 0 0
-15.9607 -11.1729 -2.6451 255 0 0
-15.2752 -11.9235 -2.39918 255 0 0
-14.2358 -12.2673 -1.94875 255 0 0
-15.0641 -11.9673 -2.4971 255 0 0
-15.5922 -11.8096 -3.2274 255 0 0
-13.5131 -12.4563 -2.59955 255 0 0
-13.2216 -12.5272 -2.68398 255 0 0
-15.1927 -9.67319 0.992696 255 0 0
-14.7494 -11.2603 1.28569 255 0 0
-14.4214 -12.2306 0.965364 255 0 0
-16.3565 -10.8459 0.250045 255 0 0
-16.4715 -10.8041 0.212659 255 0 0
-14.4714 -12.2342 0.883903 255 0 0
-14.0699 -12.3305 0.954133 255 0 0
-14.2898 -12.286 0.904439 255 0 0
-15.8074 -11.013 0.231055 255 0 0
-13.9385 -12.3955 0.887887 255 0 0
-16.3707 -10.8298 0.0534407 255 0 0
-15.9892 -10.9642 0.0460041 255 0 0
-13.3134 -12.5781 0.843355 255 0 0
-13.4878 -12.5086 0.791535 255 0 0
-14.2615 -12.2939 0.476406 255 0 0
-13.5694 -12.484 0.640036 255 0 0
-13.8906 -12.3923 0.520696 255 0 0
-13.5382 -12.494 0.521934 255 0 0
-14.3882 -12.2452 0.253606 255 0 0
-16.7295 -10.8473 -0.613572 255 0 0
-14.6246 -12.1591 0.107578 255 0 0
-14.4317 -12.2164 0.148839 255 0 0
-14.5588 -12.1772 -0.00446568 255 0 0
-14.3257 -12.2494 0.0399543 255 0 0
-14.4828 -12.1995 -0.119558 255 0 0
-14.4525 -12.221 -0.186778 255 0 0
-14.3853 -12.2279 -0.210118 255 0 0
-18.1754 -10.7243 -1.51068 255 0 0
-14.3179 -12.277 -0.258081 255 0 0
-14.3289 -12.2417 -0.324861 255 0 0
-13.8933 -12.3793 -0.227068 255 0 0
-13.1467 -12.5966 -0.109676 255 0 0
-15.7773 -11.4554 -1.47809 255 0 0
-13.0463 -12.6234 -0.446804 255 0 0
-13.9007 -12.3625 -1.02012 255 0 0
-14.3386 -12.2363 -1.23322 255 0 0
-13.2716 -12.5456 -0.821598 255 0 0
-15.6285 -11.3163 -1.85493 255 0 0
-14.4086 -12.2264 -1.38485 255 0 0
-16.2081 -11.0389 -2.45309 255 0 0
-13.1139 -12.4817 1.28601 255 0 0
-16.6576 -10.9324 -0.446742 255 0 0
-14.1298 -12.3182 0.226731 255 0 0
-14.4876 -12.1929 -0.00809409 255 0 0
-14.5214 -12.1912 -0.480302 255 0 0
-13.4361 -12.5077 -0.278235 255 0 0
-16.096 -11.1585 -1.61178 255 0 0
-13.4667 -12.5053 -0.723663 255 0 0
-13.4838 -12.4751 -0.783753 255 0 0
-15.1656 -11.9696 -2.56853 255 0 0
-14.074 -12.2719 -2.85342 255 0 0
-14.8302 -12.0445 -3.26314 255 0 0
-14.354 -12.2642 0.924582 255 0 0
-16.6762 -10.7647 0.0102954 255 0 0
-13.5731 -12.4883 0.938641 255 0 0
-13.8208 -12.417 0.286076 255 0 0
-13.6945 -12.4555 0.319875 255 0 0
-14.5553 -12.1643 -0.525536 255 0 0
-13.2872 -12.5359 -0.58095 255 0 0
-14.2968 -12.2374 0.691498 255 0 0
-15.7484 -11.5196 -1.60802 255 0 0
-17.3434 -10.6821 -2.41703 255 0 0
-15.7635 -11.2114 -2.35474 255 0 0
-13.7914 -12.3804 -1.74491 255 0 0
-16.2336 -11.0649 -2.92978 255 0 0
-16.3234 -10.9992 -3.54628 255 0 0
-13.9819 -12.4353 0.851109 255 0 0
-15.3562 -11.1346 0.0434117 255 0 0
-17.991 -10.7481 -1.60621 255 0 0
-13.3717 -12.5183 -0.563329 255 0 0
-14.1615 -12.2704 -1.98637 255 0 0
-14.5659 -11.4108 1.08016 255 0 0
-16.7715 -11.0838 -0.896181 255 0 0
-14.2824 -12.2817 -0.28048 255 0 0
-13.9458 -12.3692 -0.177572 255 0 0
-16.6857 -11.1304 -1.17556 255 0 0
-16.4261 -10.798 0.299497 255 0 0
-13.4974 -12.4835 0.761602 255 0 0
-16.9482 -10.9954 -1.27517 255 0 0
-15.1043 -11.1958 0.908185 255 0 0
-16.3432 -10.9543 -2.40611 255 0 0
-14.0687 -12.2775 -2.84027 255 0 0
-14.1333 -12.2836 -2.82208 255 0 0
-14.8395 -12.0489 -2.91808 255 0 0
-16.445 -10.8271 -2.53153 255 0 0
-19.1415 -10.7407 -2.59886 255 0 0
-17.2368 -10.8194 -2.21214 255 0 0
-13.4677 -12.4804 -1.40084 255 0 0
-16.9723 -10.8712 -1.59466 255 0 0
-14.5836 -12.1679 -1.3703 255 0 0
-13.7791 -12.3973 -1.10369 255 0 0
-14.2395 -12.2573 -0.943126 255 0 0
-16.7972 -10.7446 -0.691788 255 0 0
-13.3936 -12.5191 -0.589532 255 0 0
-14.4234 -12.2293 -0.501103 255 0 0
-16.0358 -11.4329 -0.466944 255 0 0
-17.2906 -10.8399 -0.440828 255 0 0
-13.3493 -12.5294 -0.312851 255 0 0
-13.6396 -12.4801 -0.260616 255 0 0
-14.5709 -12.1814 0.0307464 255 0 0
-16.1807 -10.8967 0.0709934 255 0 0
-15.5692 -11.0826 0.0542607 255 0 0
-14.9382 -11.2685 0.0499593 255 0 0
-15.5653 -11.0829 0.0679951 255 0 0
-13.2811 -12.5655 0.0148747 255 0 0
-16.1891 -10.9058 0.117917 255 0 0
-15.7953 -11.0196 0.187661 255 0 0
-15.9617 -10.963 0.267483 255 0 0
-15.1464 -11.1993 0.24427 255 0 0
-14.3226 -12.2514 0.279612 255 0 0
-14.578 -12.1862 0.304995 255 0 0
-14.3044 -12.2662 0.349213 255 0 0
-14.186 -12.3097 0.384553 255 0 0
-13.8212 -12.4147 0.514569 255 0 0
-13.751 -12.4227 0.618327 255 0 0
-14.3322 -12.2706 0.871084 255 0 0
-14.1842 -12.3181 0.855446 255 0 0
-13.919 -12.4104 0.85405 255 0 0
-14.644 -11.3552 0.872059 255 0 0
-14.1312 -12.3065 0.936417 255 0 0
-15.4447 -11.8366 -3.53221 255 0 0
-15.5889 -11.8081 -3.18927 255 0 0
-16.3564 -10.6936 -3.09097 255 0 0
-14.6059 -12.1022 -2.58966 255 0 0
-16.3699 -11.0735 -1.34271 255 0 0
-16.3667 -11.11 -1.28257 255 0 0
-14.1929 -12.2747 -1.0638 255 0 0
-14.2536 -12.2682 -1.03204 255 0 0
-15.7394 -11.4978 -0.936851 255 0 0
-16.7254 -10.8122 -0.661673 255 0 0
-13.2896 -12.5452 -0.589296 255 0 0
-15.818 -11.5015 -0.524765 255 0 0
-14.45 -12.2215 -0.512629 255 0 0
-14.9102 -11.5788 -0.469465 255 0 0
-16.5139 -11.0274 -0.441025 255 0 0
-14.989 -11.5543 -0.432993 255 0 0
-16.4824 -11.0856 -0.430937 255 0 0
-14.9073 -11.5817 -0.425069 255 0 0
-17.16 -10.8566 -0.336812 255 0 0
-13.8723 -12.3632 -0.277413 255 0 0
-14.834 -11.2978 0.023745 255 0 0
-14.6672 -12.1597 0.0257441 255 0 0
-14.4424 -12.2281 0.0573228 255 0 0
-13.7171 -12.4877 0.0385935 255 0 0
-16.6853 -10.7519 0.271563 255 0 0
-16.0519 -10.9336 0.249289 255 0 0
-14.13 -12.3203 0.275963 255 0 0
-13.6167 -12.4956 0.50771 255 0 0
-14.7381 -11.3344 0.689011 255 0 0
-15.67 -9.24994 0.660834 255 0 0
-15.2916 -9.52426 0.753575 255 0 0
-13.7842 -12.4361 0.884094 255 0 0
-14.2363 -12.2624 0.980555 255 0 0
-13.3246 -12.5577 0.905116 255 0 0
-15.2054 -11.0763 1.12968 255 0 0
-12.7571 -12.5769 1.08313 255 0 0
-15.3403 -9.26854 1.22031 255 0 0
-14.0499 -12.3091 -1.97974 255 0 0
-16.8988 -10.9069 -1.6083 255 0 0
-15.8193 -11.4744 -1.54215 255 0 0
-17.4955 -10.7819 -1.25179 255 0 0
-16.3526 -11.1226 -0.865228 255 0 0
-17.4827 -10.7921 -0.826122 255 0 0
-13.8836 -12.3949 -0.75109 255 0 0
-13.462 -12.4982 -0.691856 255 0 0
-15.9965 -11.4226 -0.709685 255 0 0
-16.7681 -10.7306 -0.575794 255 0 0
-13.4511 -12.505 -0.2539 255 0 0
-14.2076 -12.2664 -0.227515 255 0 0
-14.6247 -11.4005 -0.0162237 255 0 0
-14.432 -12.2235 0.0329154 255 0 0
-14.3528 -12.2478 0.0438333 255 0 0
-13.8744 -12.409 0.0768 255 0 0
-13.7538 -12.4461 0.512505 255 0 0
-14.2572 -12.2638 0.827955 255 0 0
-13.3783 -12.5422 0.786046 255 0 0
-13.7165 -12.4515 0.824776 255 0 0
-16.1475 -9.09943 0.891056 255 0 0
-13.8836 -12.3863 0.918855 255 0 0
-15.1927 -11.1768 1.06343 255 0 0
-15.0313 -11.207 1.07804 255 0 0
-14.5054 -11.342 1.14728 255 0 0
-12.7428 -12.5797 1.06718 255 0 0
-12.9371 -12.5184 1.10369 255 0 0
-12.7763 -12.5796 1.25329 255 0 0
-14.133 -12.2789 -1.35914 255 0 0
-13.432 -12.4807 -1.06119 255 0 0
-13.816 -12.3665 -0.724682 255 0 0
-14.9178 -11.5701 -0.369858 255 0 0
-16.951 -10.6502 0.0350742 255 0 0
-16.8003 -10.7001 0.0432219 255 0 0
-16.5 -10.8112 0.0415915 255 0 0
-14.8111 -11.2965 -0.00355562 255 0 0
-15.1411 -11.2071 0.0225922 255 0 0
-13.6246 -12.462 0.108459 255 0 0
-14.1924 -12.3095 0.803034 255 0 0
-12.8505 -12.5418 1.1429 255 0 0
-12.8371 -12.5647 1.25873 255 0 0
-12.6357 -12.5585 1.32866 255 0 0
-16.9456 -10.9191 -1.37475 255 0 0
-16.9131 -10.9935 -0.867359 255 0 0
-13.9351 -12.376 -0.256821 255 0 0
-15.036 -11.2388 0.00201891 255 0 0
-13.7173 -12.4375 0.0311588 255 0 0
-14.1892 -12.3158 0.291208 255 0 0
-13.7214 -12.4138 0.275989 255 0 0
-13.7306 -12.3961 0.972167 255 0 0
-14.9609 -11.2719 -0.000855789 255 0 0
-13.9315 -12.3818 0.259702 255 0 0
-16.033 -10.8584 0.333841 255 0 0
-15.985 -10.9185 0.386855 255 0 0
-14.3682 -12.2472 0.750695 255 0 0
-13.7759 -12.433 0.792601 255 0 0
-13.7672 -12.4151 0.943992 255 0 0
-14.4197 -11.3668 1.10415 255 0 0
-13.7372 -12.3937 -1.36813 255 0 0
-13.9651 -12.3241 -0.308059 255 0 0
-14.1749 -12.3253 0.519501 255 0 0
-13.9237 -12.3654 0.89215 255 0 0
-13.1828 -12.4583 1.2525 255 0 0
-14.1698 -12.3565 0.761229 255 0 0
-17.0187 -11.1612 -0.939883 255 0 0
-15.8264 -11.4686 -0.867942 255 0 0
-15.2523 -9.47526 1.21316 255 0 0
-14.4893 -12.1394 -3.38153 255 0 0
-13.6873 -12.3719 -3.38042 255 0 0
-19.2985 -10.6879 -3.11275 255 0 0
-16.1783 -10.8979 -2.54391 255 0 0
-14.6661 -12.102 -2.91961 255 0 0
-13.2509 -12.5066 -2.99132 255 0 0
-15.3361 -11.8882 -2.84674 255 0 0
-13.7186 -12.3899 -2.33524 255 0 0
-17.2155 -10.7505 -1.56874 255 0 0
-17.4019 -10.7799 -1.31331 255 0 0
-15.0644 -11.9982 -1.65685 255 0 0
-16.3322 -11.1092 -1.3248 255 0 0
-14.8373 -12.1012 -1.67603 255 0 0
-13.9355 -12.3547 -1.69128 255 0 0
-18.1601 -10.7901 -0.902395 255 0 0
-14.5565 -12.1543 -1.49294 255 0 0
-15.7425 -11.4992 -0.942875 255 0 0
-15.7832 -11.3688 -0.855048 255 0 0
-17.298 -10.841 -0.444881 255 0 0
-14.5837 -12.1635 -1.02362 255 0 0
-16.5649 -10.9642 -0.47166 255 0 0
-16.2519 -11.1648 -0.485042 255 0 0
-14.0716 -12.3152 -0.788243 255 0 0
-15.0202 -11.5618 -0.487254 255 0 0
-14.0888 -12.3239 -0.756632 255 0 0
-14.901 -11.5942 -0.4745 255 0 0
-16.185 -10.9053 0.117798 255 0 0
-13.1714 -12.5807 -0.585599 255 0 0
-15.967 -10.9686 0.266143 255 0 0
-13.451 -12.5142 -0.268465 255 0 0
-14.4732 -12.2089 0.0450263 255 0 0
-15.3207 -9.43137 0.790476 255 0 0
-15.1344 -11.2072 0.695775 255 0 0
-15.0699 -9.92651 0.914416 255 0 0
-14.189 -12.3176 0.856303 255 0 0
-14.2246 -12.2857 0.968732 255 0 0
-13.2672 -12.5736 0.835582 255 0 0
-13.184 -12.6148 0.843561 255 0 0
-16.0607 -10.7529 -3.22952 255 0 0
-16.4496 -10.6733 -3.09094 255 0 0
-14.8922 -12.016 -3.03538 255 0 0
-18.538 -10.8867 -2.77052 255 0 0
-18.0804 -10.74 -1.89036 255 0 0
-15.4682 -11.887 -1.93357 255 0 0
-15.9379 -11.4484 -1.14873 255 0 0
-15.7257 -11.4591 -0.77423 255 0 0
-16.5343 -10.9913 -0.513202 255 0 0
-17.464 -10.8147 -0.301081 255 0 0
-16.7205 -10.7256 0.0409532 255 0 0
-16.534 -10.7994 0.0418016 255 0 0
-14.6482 -12.1592 -0.50441 255 0 0
-13.1188 -12.5935 -0.818515 255 0 0
-16.0206 -11.0663 -0.0335176 255 0 0
-15.9542 -10.9652 0.206197 255 0 0
-14.3055 -12.2599 -0.141433 255 0 0
-15.2524 -9.56575 0.64076 255 0 0
-13.7945 -12.4285 0.0636272 255 0 0
-15.2921 -9.53394 0.754895 255 0 0
-15.2089 -11.1784 0.886872 255 0 0
-13.2726 -12.5985 0.280743 255 0 0
-13.8295 -12.4082 0.512654 255 0 0
-13.9159 -12.3897 0.954247 255 0 0
-13.0854 -12.4782 1.15097 255 0 0
-12.9514 -12.5265 1.16479 255 0 0
-15.3468 -11.8838 -3.54739 255 0 0
-14.3167 -12.1826 -3.43111 255 0 0
-13.9679 -12.2962 -3.1619 255 0 0
-15.1857 -11.9514 -2.5808 255 0 0
-18.1777 -10.5685 -1.77918 255 0 0
-18.1571 -10.6629 -1.66044 255 0 0
-15.1457 -11.9537 -1.66693 255 0 0
-17.0652 -10.6345 0.0594977 255 0 0
-14.8875 -11.5974 -0.357423 255 0 0
-15.6586 -11.0463 0.0669682 255 0 0
-14.1839 -12.296 -0.230443 255 0 0
-15.2759 -11.1027 1.08483 255 0 0
-14.0924 -12.3363 0.930929 255 0 0
-13.7494 -12.2962 1.10402 255 0 0
-12.8582 -12.559 1.27873 255 0 0
-13.8997 -12.3242 -3.12301 255 0 0
-16.9434 -10.896 -2.21806 255 0 0
-14.2812 -12.2519 -2.60178 255 0 0
-14.3534 -12.2317 -0.7507 255 0 0
-14.4038 -12.2335 -0.495714 255 0 0
-14.1804 -12.2833 -0.418737 255 0 0
-13.7556 -12.4393 0.0344537 255 0 0
-15.0794 -9.94631 0.780129 255 0 0
-14.2583 -12.3111 0.517795 255 0 0
-16.9187 -10.9458 -1.50265 255 0 0
-14.571 -12.1879 -1.39002 255 0 0
-13.6256 -12.4456 -1.02386 255 0 0
-15.9747 -11.234 -0.0699362 255 0 0
-15.0931 -9.89024 0.761783 255 0 0
-12.6941 -12.6869 1.32776 255 0 0
-18.1154 -10.8011 -0.616906 255 0 0
-14.8657 -11.5838 -0.935745 255 0 0
-15.6041 -11.0434 -0.010367 255 0 0
-13.9555 -12.2897 -0.306656 255 0 0
-14.1857 -12.2869 -1.70047 255 0 0
-15.4261 -11.1436 -0.00841345 255 0 0
-12.9377 -12.529 1.19991 255 0 0
-16.8926 -10.6769 -3.27851 255 0 0
-14.3354 -12.2042 -2.90407 255 0 0
-15.0545 -11.9968 -2.64042 255 0 0
-17.5616 -10.721 -1.30625 255 0 0
-18.0491 -10.8106 -1.05494 255 0 0
-14.3922 -12.1982 -2.23989 255 0 0
-14.2719 -12.2539 -1.72991 255 0 0
-17.366 -10.5393 0.10157 255 0 0
-15.7504 -11.052 0.00685681 255 0 0
-15.7063 -11.0378 0.033744 255 0 0
-14.9052 -11.2886 0.0593491 255 0 0
-14.6372 -11.3675 0.135919 255 0 0
-13.2098 -12.5671 -0.566555 255 0 0
-14.2988 -12.2768 0.821421 255 0 0
-17.6648 -10.3016 -3.07784 255 0 0
-15.3745 -11.8914 -2.5808 255 0 0
-13.688 -12.4007 -2.4358 255 0 0
-16.2525 -11.1734 -0.485187 255 0 0
-17.2077 -10.5859 0.24556 255 0 0
-16.4161 -10.8162 0.114228 255 0 0
-13.0284 -12.5037 1.27693 255 0 0
-19.0324 -10.7575 -3.72434 255 0 0
-16.248 -10.748 -3.09728 255 0 0
-15.3241 -11.8833 -3.54155 255 0 0
-14.4903 -12.1648 -3.1039 255 0 0
-14.3048 -12.2028 -3.14602 255 0 0
-13.7919 -12.3639 -3.26399 255 0 0
-14.5507 -12.1845 0.148771 255 0 0
-15.5731 -11.1937 -2.46271 255 0 0
-15.9943 -11.1161 -0.0246549 255 0 0
-13.9086 -12.3683 -0.555255 255 0 0
-14.5417 -12.2183 0.093753 255 0 0
-14.2097 -12.2746 -1.07204 255 0 0
-15.6717 -11.0448 -0.00132908 255 0 0
-15.0614 -11.2375 0.0418805 255 0 0
-12.9912 -12.51 1.09356 255 0 0
-13.024 -12.502 1.20599 255 0 0
-15.6652 -11.0628 -3.25857 255 0 0
-16.2682 -10.9823 -2.48393 255 0 0
-15.6985 -11.7626 -3.69555 255 0 0
-16.8907 -10.9169 -1.64981 255 0 0
-18.1827 -10.7516 -0.879371 255 0 0
-15.3385 -11.8903 -2.80739 255 0 0
-17.9889 -10.8069 -0.797186 255 0 0
-13.917 -12.3112 -3.40153 255 0 0
-14.3236 -12.2072 -2.89938 255 0 0
-15.8119 -11.479 -1.1557 255 0 0
-16.3476 -10.8531 0.19419 255 0 0
-15.1416 -11.2119 0.188291 255 0 0
-13.9554 -12.2871 -3.74493 255 0 0
-15.0749 -11.9873 -2.58927 255 0 0
-14.2191 -12.2391 -2.94982 255 0 0
-17.4833 -10.7952 -0.301904 255 0 0
-16.2447 -11.154 -0.715689 255 0 0
-15.8112 -9.21243 0.789131 255 0 0
-13.8365 -12.3319 -3.23165 255 0 0
-16.3025 -11.1305 -0.681337 255 0 0
-15.7503 -11.0389 -0.00875287 255 0 0
-14.5472 -12.1959 0.148845 255 0 0
-14.8537 -12.0327 -3.65706 255 0 0
-17.4734 -10.7781 -1.27796 255 0 0
-15.356 -11.8889 -2.59723 255 0 0
-15.7975 -11.5053 -0.502843 255 0 0
-15.4847 -11.5944 -0.563714 255 0 0
-15.9514 -10.9709 0.21062 255 0 0
-15.819 -10.9961 0.141251 255 0 0
-15.6895 -11.3192 -2.29634 255 0 0
-15.2546 -11.1894 0.301361 255 0 0
-16.2394 -10.9476 -2.40922 255 0 0
-18.859 -10.7959 -3.5706 255 0 0
-17.4427 -10.7928 -0.995252 255 0 0
-17.4477 -10.8158 -0.311526 255 0 0
-16.3198 -11.1296 -1.0248 255 0 0
-16.4114 -11.1055 -0.882549 255 0 0
-16.3669 -10.8467 0.0777104 255 0 0
-15.1743 -11.1911 0.942932 255 0 0
-13.4292 -12.4832 -1.16984 255 0 0
-18.0453 -10.7586 -1.39033 255 0 0
-15.8526 -11.719 -3.66518 255 0 0
-18.0088 -10.8181 -0.639577 255 0 0
-17.423 -10.8053 -0.983437 255 0 0
-16.3662 -11.1198 -0.85883 255 0 0
-16.3553 -11.1367 -0.337388 255 0 0
-17.144 -10.8855 -1.35073 255 0 0
-17.1229 -10.89 -1.34426 255 0 0
-16.3589 -11.1163 -1.10223 255 0 0
-16.7205 -10.7359 0.0238095 255 0 0
-18.0455 -10.6107 -2.30554 255 0 0
-15.5665 -11.8121 -3.21524 255 0 0
-15.5377 -11.2889 -2.44939 255 0 0
-18.1858 -10.7588 -1.30933 255 0 0
-16.9189 -10.9195 -2.22356 255 0 0
-16.9279 -10.9292 -2.08485 255 0 0
-16.9194 -10.927 -1.43269 255 0 0
-15.7395 -11.4978 -0.706427 255 0 0
-13.0135 -12.4644 0.991792 255 0 0
-16.9765 -10.9382 -1.14653 255 0 0
-17.3612 -10.5867 -2.4385 255 0 0
-13.0985 -12.4813 1.09262 255 0 0
-17.5369 -10.7579 -1.25052 255 0 0
-17.4465 -10.7956 -0.996167 255 0 0
-17.4309 -10.8119 -0.466454 255 0 0
-16.4893 -11.079 -1.01512 255 0 0
-16.3258 -11.1338 -1.02461 255 0 0
-16.4797 -11.1018 -0.502022 255 0 0
-13.9038 -12.3265 -3.23955 255 0 0
-18.289 -10.7104 -1.40701 255 0 0
-16.9673 -10.8534 -1.21187 255 0 0
-15.8839 -11.4241 -0.891548 255 0 0
-16.7753 -10.9495 -2.21184 255 0 0
-14.3532 -12.222 -1.21573 255 0 0
-16.95 -10.8953 -1.34738 255 0 0
-16.8127 -11.0572 -1.10541 255 0 0
-17.0831 -10.8667 -2.02291 255 0 0
-16.505 -10.7814 -2.39674 255 0 0
-16.7932 -10.9432 -2.13877 255 0 0
-16.8468 -10.9233 -0.910623 255 0 0
-17.4411 -10.7912 -0.995382 255 0 0
-15.5622 -11.1628 -2.48956 255 0 0
-16.2413 -11.1701 -0.503299 255 0 0
-14.0421 -12.285 -2.8998 255 0 0
-14.2779 -12.2909 0.502737 255 0 0
-14.2384 -12.3074 0.853613 255 0 0
-18.8799 -10.7908 -3.65437 255 0 0
-16.4054 -11.1107 -0.929622 255 0 0
-13.4706 -12.4897 -1.07403 255 0 0
-13.106 -12.4823 1.1211 255 0 0
-17.9817 -10.5913 -2.35991 255 0 0
-16.3714 -10.8621 -2.46674 255 0 0
-13.4191 -12.5249 -0.675157 255 0 0
-13.0783 -12.4808 1.08728 255 0 0
-16.5137 -10.8707 -2.42086 255 0 0
-15.1724 -11.1925 0.912852 255 0 0
-13.4663 -12.5002 -1.18226 255 0 0
-17.3561 -10.5569 -2.19981 255 0 0
-16.9539 -10.8982 -1.29569 255 0 0
-15.1035 -9.8624 0.967539 255 0 0
-15.1787 -11.1887 0.837716 255 0 0
-15.1546 -11.9676 -2.6305 255 0 0
-14.6316 -12.1469 -1.50244 255 0 0
-13.4317 -12.4993 -1.13079 255 0 0
-14.6465 -12.1345 -1.58014 255 0 0
-16.6374 -11.0182 -1.77382 255 0 0
-16.0328 -11.4371 -0.419845 255 0 0
-15.1868 -11.1939 0.119464 255 0 0
-14.6673 -12.0939 -3.39421 255 0 0
-14.2541 -12.2943 0.427779 255 0 0
-13.385 -12.5311 -0.734209 255 0 0
-16.5967 -11.0282 -1.86635 255 0 0
-15.515 -11.8567 -2.0123 255 0 0
-14.499 -12.2228 0.650954 255 0 0
-13.4327 -12.4937 -1.24275 255 0 0
-12.7931 -12.5657 1.28604 255 0 0
-17.2925 -10.8106 -1.20395 255 0 0
-16.5882 -11.037 -1.23889 255 0 0
-14.3481 -12.2289 -1.34346 255 0 0
-17.4384 -10.7932 -0.903502 255 0 0
-17.4343 -10.7964 -0.990527 255 0 0
-16.7818 -10.7605 -0.689786 255 0 0
-15.048 -9.96973 0.658926 255 0 0
-14.5289 -12.2105 0.561928 255 0 0
-14.6294 -12.1445 -1.50513 255 0 0
-14.3435 -12.2641 -0.0123351 255 0 0
-14.2312 -12.3044 0.504161 255 0 0
-15.0875 -9.89574 0.780879 255 0 0
-16.9215 -10.967 -1.31101 255 0 0
-15.1627 -11.1965 0.875387 255 0 0
-14.8888 -11.591 -0.458333 255 0 0
-14.7527 -12.1129 -0.549425 255 0 0
-13.9672 -12.3642 0.82301 255 0 0
-15.1595 -11.1903 0.628939 255 0 0
-16.0061 -11.2058 -2.48182 255 0 0
-15.5102 -11.8577 -1.98798 255 0 0
-14.6532 -12.126 -1.60254 255 0 0
-13.9548 -12.3647 0.803044 255 0 0
-13.2141 -12.5944 0.458228 255 0 0
-16.5575 -11.0505 -1.74442 255 0 0
-15.1723 -11.1822 0.651625 255 0 0
-15.9683 -11.1921 -2.51869 255 0 0
-15.2705 -11.4471 -1.21178 255 0 0
-14.0372 -12.2829 -2.64016 255 0 0
-13.1058 -12.485 1.28391 255 0 0
-16.4893 -10.7938 -2.60979 255 0 0
-14.4334 -12.2213 0.154986 255 0 0
-14.5878 -12.1435 -1.31522 255 0 0
-16.174 -11.1093 -2.68548 255 0 0
-15.3547 -11.4427 -1.5071 255 0 0
-12.9478 -12.5403 1.03857 255 0 0
-17.0232 -10.8625 -1.60329 255 0 0
-16.3837 -11.1302 -0.51144 255 0 0
-15.1613 -11.1915 0.88441 255 0 0
-16.409 -11.1027 -1.14303 255 0 0
-15.1105 -11.2232 0.816976 255 0 0
-16.2369 -11.1577 -1.01803 255 0 0
-16.5897 -11.0214 -1.78204 255 0 0
-15.8889 -11.4648 -1.11335 255 0 0
-14.6137 -11.357 0.734442 255 0 0
-14.2386 -12.2908 0.948774 255 0 0
-14.4875 -12.2185 0.256359 255 0 0
-15.318 -11.9269 -2.23023 255 0 0
-15.5146 -11.8444 -3.28777 255 0 0
-15.0866 -9.89854 0.789052 255 0 0
-18.8756 -10.8087 -3.01576 255 0 0
-17.1525 -10.8705 -1.11185 255 0 0
-14.4959 -12.2295 0.633853 255 0 0
-14.3373 -12.2663 0.81226 255 0 0
-15.1862 -11.9613 -1.69083 255 0 0
-15.5713 -11.8184 -3.21452 255 0 0
-14.3375 -12.2765 0.907706 255 0 0
-13.6993 -12.4495 0.472289 255 0 0
-13.8466 -12.4004 0.111027 255 0 0
-14.4148 -12.1903 -2.31442 255 0 0
-13.4257 -12.5192 -0.67915 255 0 0
-14.0889 -12.277 -2.76172 255 0 0
-16.0314 -11.1836 -2.54973 255 0 0
-14.5766 -12.1474 -1.31985 255 0 0
-14.3984 -12.2111 -1.30617 255 0 0
-12.857 -12.5501 1.07389 255 0 0
-16.8441 -10.9957 -1.41936 255 0 0
-16.4223 -10.8498 -2.42311 255 0 0
-12.9605 -12.5122 1.27871 255 0 0
-17.2397 -10.863 -1.22091 255 0 0
-15.7273 -11.3095 -1.94654 255 0 0
-13.0434 -12.5007 1.07749 255 0 0
-15.1098 -9.85448 0.94924 255 0 0
-15.1634 -9.73881 0.789992 255 0 0
-17.4995 -10.7953 -0.312772 255 0 0
-16.6412 -10.7665 0.207141 255 0 0
-16.2726 -11.1536 -0.553534 255 0 0
-14.8775 -11.2764 0.733506 255 0 0
-14.6172 -11.3589 0.881646 255 0 0
-14.6169 -11.3519 0.729014 255 0 0
-18.675 -10.8571 -3.80475 255 0 0
-14.7701 -11.3318 0.152428 255 0 0
-14.4598 -12.2278 0.713818 255 0 0
-13.3882 -12.5395 0.664885 255 0 0
-13.2005 -12.5964 0.489302 255 0 0
-15.5104 -11.8384 -3.27968 255 0 0
-15.5094 -9.30014 0.988684 255 0 0
-17.5432 -10.7726 -0.658153 255 0 0
-16.3366 -11.1472 -0.33271 255 0 0
-16.3544 -11.1461 -0.570806 255 0 0
-15.1733 -11.2046 0.212067 255 0 0
-17.3984 -10.5613 -2.44605 255 0 0
-14.3417 -12.2554 0.749979 255 0 0
-13.7649 -12.2946 1.10832 255 0 0
-14.3458 -12.2754 -0.00440678 255 0 0
-13.1246 -12.4839 1.29156 255 0 0
-13.6502 -12.4622 0.636924 255 0 0
-14.6056 -12.1495 -1.03041 255 0 0
-14.3097 -12.2529 -0.759057 255 0 0
-13.1442 -12.6149 0.415957 255 0 0
-14.912 -12.0388 -2.2871 255 0 0
-15.1134 -11.9664 -3.28162 255 0 0
-13.9196 -12.3448 -1.58047 255 0 0
-15.1067 -11.2078 0.807569 255 0 0
-15.1342 -11.206 0.755856 255 0 0
-15.0714 -11.2161 0.800545 255 0 0
-15.161 -11.2032 0.705017 255 0 0
-14.488 -12.2102 0.476105 255 0 0
-14.7169 -12.1182 -0.978136 255 0 0
-13.4902 -12.5038 0.560062 255 0 0
-12.8644 -12.5508 1.07846 255 0 0
-12.8237 -12.5552 1.10415 255 0 0
-14.4118 -12.2122 -1.11042 255 0 0
-13.5646 -12.4722 -0.354998 255 0 0
-14.0936 -12.2751 -2.92615 255 0 0
-13.7847 -12.4109 0.242461 255 0 0
-13.3154 -12.5703 0.860666 255 0 0
-13.8178 -12.3964 -0.75149 255 0 0
-13.4814 -12.4893 -1.30269 255 0 0
-15.224 -9.63389 0.973098 255 0 0
-15.9076 -11.4651 -0.711555 255 0 0
-14.4244 -12.2144 0.173845 255 0 0
-14.3188 -12.2762 -0.194676 255 0 0
-13.3824 -12.51 -1.12587 255 0 0
-15.9881 -11.4502 -0.602166 255 0 0
-14.6153 -12.1553 0.758473 255 0 0
-16.9329 -10.9424 -1.16396 255 0 0
-15.5742 -11.4614 -1.66234 255 0 0
-15.7981 -11.3513 -1.99975 255 0 0
-16.4519 -11.1174 -1.63095 255 0 0
-15.2193 -9.64251 0.981022 255 0 0
-15.3173 -9.45668 0.796867 255 0 0
-16.6417 -10.7653 0.205537 255 0 0
-16.6338 -10.7566 0.0893322 255 0 0
-14.9668 -11.2518 0.952516 255 0 0
-14.6226 -11.352 0.723078 255 0 0
-14.7624 -11.3047 0.589106 255 0 0
-14.4179 -12.2663 0.889509 255 0 0
-14.5718 -12.1919 0.756952 255 0 0
-14.3875 -12.2707 0.890052 255 0 0
-16.406 -11.098 -1.02005 255 0 0
-14.5892 -12.1715 0.164903 255 0 0
-15.3838 -11.6374 -0.752849 255 0 0
-16.3832 -10.8658 -2.52279 255 0 0
-13.2277 -12.6027 0.491027 255 0 0
-13.2123 -12.5983 0.463188 255 0 0
-14.2819 -12.2729 -0.553624 255 0 0
-15.3223 -11.9207 -2.22916 255 0 0
-13.4354 -12.5332 -0.713174 255 0 0
-15.5082 -11.837 -3.2766 255 0 0
-15.2969 -9.50407 0.749174 255 0 0
-16.3767 -11.1399 -0.345165 255 0 0
-16.3607 -11.1351 -0.414412 255 0 0
-14.3416 -12.2731 0.896225 255 0 0
-13.7608 -12.293 1.10745 255 0 0
-14.1451 -12.3151 0.393364 255 0 0
-15.9373 -11.4523 -1.31442 255 0 0
-14.6655 -12.1444 -0.276168 255 0 0
-13.4207 -12.5347 0.631331 255 0 0
-13.6415 -12.4388 0.224821 255 0 0
-16.2884 -10.8933 -2.48046 255 0 0
-13.4278 -12.5266 0.300244 255 0 0
-13.4842 -12.4954 0.21123 255 0 0
-14.244 -12.2724 -0.544389 255 0 0
-14.5712 -12.1694 -0.977061 255 0 0
-13.317 -12.5376 -0.594046 255 0 0
-16.2301 -10.8779 0.0880795 255 0 0
-15.0296 -11.2529 0.0465689 255 0 0
-16.0121 -11.4388 -0.636867 255 0 0
-13.8945 -12.3779 0.766891 255 0 0
-17.4776 -10.5319 -2.53081 255 0 0
-16.012 -11.4061 -1.17843 255 0 0
-12.8575 -12.5484 1.29214 255 0 0
-13.954 -12.3528 -0.704173 255 0 0
-13.3082 -12.5423 -0.505569 255 0 0
-14.3964 -12.2175 -2.28699 255 0 0
-13.4746 -12.4541 -3.28436 255 0 0
-16.4301 -10.8173 0.238427 255 0 0
-15.9231 -10.9775 0.146088 255 0 0
-15.6036 -11.0687 0.0820392 255 0 0
-15.5497 -11.0926 0.0966949 255 0 0
-14.5417 -12.2055 0.807435 255 0 0
-14.3312 -12.2568 0.75451 255 0 0
-14.688 -11.3453 0.0161668 255 0 0
-14.2754 -12.2753 0.76671 255 0 0
-15.7491 -11.452 -0.897863 255 0 0
-13.133 -12.4914 1.24087 255 0 0
-12.9188 -12.5296 1.25453 255 0 0
-12.9563 -12.518 1.20529 255 0 0
-12.9947 -12.5061 1.15467 255 0 0
-12.8209 -12.5579 1.10109 255 0 0
-14.314 -12.262 -0.203296 255 0 0
-13.3608 -12.5132 -1.09639 255 0 0
-13.4921 -12.4888 -1.31182 255 0 0
-15.1927 -9.67492 0.98493 255 0 0
-13.0256 -12.4999 1.16413 255 0 0
-16.7324 -11.0867 -1.17033 255 0 0
-17.1178 -10.8702 -2.16196 255 0 0
-13.7488 -12.4384 0.268993 255 0 0
-15.2436 -9.59655 0.935964 255 0 0
-16.5934 -10.8766 -0.449119 255 0 0
-15.8669 -11.2277 -2.3974 255 0 0
-17.1102 -10.7085 -1.19092 255 0 0
-16.7402 -10.9688 -1.85201 255 0 0
-16.3803 -11.0709 -1.63856 255 0 0
-14.7526 -11.327 0.687889 255 0 0
-14.6351 -11.3446 0.585091 255 0 0
-14.4228 -12.257 0.892244 255 0 0
-16.7094 -10.7705 -0.515115 255 0 0
-13.0458 -12.503 1.30545 255 0 0
-16.5795 -10.9254 -0.511645 255 0 0
-13.979 -12.3703 0.889942 255 0 0
-16.6002 -10.9516 -0.575974 255 0 0
-14.4871 -12.2199 0.527284 255 0 0
-14.444 -12.2345 0.519726 255 0 0
-18.1077 -10.7703 -1.48727 255 0 0
-13.9986 -12.3462 0.455942 255 0 0
-14.3025 -12.2531 0.277369 255 0 0
-13.9348 -12.3643 0.435412 255 0 0
-13.9273 -12.3804 0.334499 255 0 0
-14.0096 -12.35 0.264586 255 0 0
-13.3429 -12.5413 0.254694 255 0 0
-14.0367 -12.302 -0.20448 255 0 0
-14.5923 -12.1807 -0.508444 255 0 0
-14.2327 -12.264 -0.415706 255 0 0
-16.7584 -10.9701 -1.98407 255 0 0
-16.898 -10.9004 -2.38844 255 0 0
-16.0577 -11.3902 -2.07519 255 0 0
-13.6188 -12.4482 -0.716949 255 0 0
-14.3921 -12.2206 -1.17905 255 0 0
-16.3916 -10.835 -2.51371 255 0 0
-16.387 -10.8779 -2.52797 255 0 0
-13.2843 -12.5427 -0.824093 255 0 0
-13.4968 -12.465 -3.27514 255 0 0
-17.0431 -10.6348 0.236641 255 0 0
-17.4991 -10.8067 -0.307425 255 0 0
-15.8476 -10.9993 0.198703 255 0 0
-14.4038 -12.2009 0.800658 255 0 0
-14.3628 -12.2539 0.830007 255 0 0
-16.7902 -10.7655 -0.525044 255 0 0
-16.636 -10.8386 -0.511831 255 0 0
-14.3998 -12.2518 0.52409 255 0 0
-13.3521 -12.5557 0.929055 255 0 0
-14.5435 -12.187 0.12312 255 0 0
-14.4799 -12.2095 0.0230955 255 0 0
-13.4586 -12.5224 0.496725 255 0 0
-13.6024 -12.4771 0.276316 255 0 0
-13.1038 -12.6194 0.32824 255 0 0
-15.9346 -11.4488 -1.31301 255 0 0
-17.5775 -10.4958 -2.47718 255 0 0
-14.1695 -12.2931 -0.497762 255 0 0
-14.1839 -12.2844 -0.723534 255 0 0
-13.4519 -12.4983 -0.322515 255 0 0
-14.2304 -12.2758 -0.760733 255 0 0
-14.7165 -12.1142 -1.03881 255 0 0
-13.2343 -12.5647 -0.344819 255 0 0
-13.9353 -12.367 -0.761282 255 0 0
-16.257 -10.9665 -2.33502 255 0 0
-16.3125 -10.8571 -2.53305 255 0 0
-16.215 -10.9778 -2.73046 255 0 0
-13.7457 -12.4566 0.855079 255 0 0
-14.3336 -12.2706 0.560137 255 0 0
-14.6146 -12.1627 0.0816526 255 0 0
-13.6138 -12.4913 0.496443 255 0 0
-13.5804 -12.4904 0.493992 255 0 0
-14.2377 -12.2844 0.00172902 255 0 0
-14.4548 -12.208 -0.526085 255 0 0
-14.2163 -12.2649 -0.479686 255 0 0
-15.8233 -11.4676 -1.60591 255 0 0
-15.1559 -11.1955 0.695519 255 0 0
-15.3139 -11.1553 0.129716 255 0 0
-14.2419 -12.309 0.873032 255 0 0
-16.6539 -10.8209 -0.511899 255 0 0
-13.7952 -12.4401 0.847955 255 0 0
-12.8388 -12.5521 1.13607 255 0 0
-14.4328 -12.2213 0.139904 255 0 0
-13.4829 -12.502 0.544064 255 0 0
-14.3182 -12.2619 -0.219355 255 0 0
-15.9898 -10.865 -3.17983 255 0 0
-16.3278 -10.9698 -3.53061 255 0 0
-16.2908 -10.9972 -3.54936 255 0 0
-15.1523 -11.1851 0.738534 255 0 0
-14.9456 -11.2841 0.0489089 255 0 0
-16.894 -10.8856 -1.63375 255 0 0
-13.5203 -12.493 -0.676939 255 0 0
-16.5803 -10.9979 -0.477924 255 0 0
-15.1335 -11.1999 0.0455052 255 0 0
-12.906 -12.5201 1.19487 255 0 0
-15.9665 -11.4625 -0.695738 255 0 0
-14.0496 -12.339 0.273956 255 0 0
-16.9748 -10.9288 -1.5301 255 0 0
-15.8265 -11.223 -2.34879 255 0 0
-16.3124 -11.0951 -0.495565 255 0 0
-15.256 -11.6708 -0.725468 255 0 0
-16.7207 -11.1036 -1.76964 255 0 0
-17.5615 -10.5327 -1.2599 255 0 0
-15.2234 -9.63854 0.983916 255 0 0
-15.1979 -11.1762 0.885806 255 0 0
-12.9348 -12.5137 1.32144 255 0 0
-13.4437 -12.5122 0.790565 255 0 0
-13.7356 -12.4587 0.50521 255 0 0
-14.3173 -12.2549 0.264407 255 0 0
-14.5374 -12.2005 0.0848581 255 0 0
-16.7806 -10.727 -0.645287 255 0 0
-18.0893 -10.7965 -0.897844 255 0 0
-13.2513 -12.5749 0.276447 255 0 0
-14.3001 -12.2765 -0.00699805 255 0 0
-18.0495 -10.8111 -1.05601 255 0 0
-13.3066 -12.5538 0.00976088 255 0 0
-13.8799 -12.3764 -0.193175 255 0 0
-15.2234 -11.6804 -0.650061 255 0 0
-16.1403 -11.4032 -0.951928 255 0 0
-16.3324 -11.1093 -1.06137 255 0 0
-15.7074 -11.4971 -0.902732 255 0 0
-14.1817 -12.2921 -0.505125 255 0 0
-13.419 -12.5063 -0.321708 255 0 0
-14.3771 -12.221 -0.744132 255 0 0
-15.7803 -11.4999 -1.28304 255 0 0
-14.2939 -12.244 -1.07333 255 0 0
-19.2511 -10.721 -2.77091 255 0 0
-14.9345 -12.0351 -1.67596 255 0 0
-16.0528 -11.3896 -2.07162 255 0 0
-16.9292 -10.9093 -2.40061 255 0 0
-14.3881 -12.2021 -2.81982 255 0 0
-12.65 -12.8087 1.35092 255 0 0
-14.5175 -12.1766 0.794156 255 0 0
-14.6419 -11.3398 0.583785 255 0 0
-14.5141 -12.2104 0.784258 255 0 0
-17.2172 -10.5815 0.107615 255 0 0
-14.207 -12.303 0.83006 255 0 0
-14.2434 -12.2935 0.811778 255 0 0
-16.2752 -10.869 0.0693167 255 0 0
-14.2554 -12.3032 0.365421 255 0 0
-17.332 -10.8165 -0.421084 255 0 0
-13.4622 -12.5273 0.497332 255 0 0
-14.4448 -12.2218 0.254013 255 0 0
-16.368 -11.1467 -0.334303 255 0 0
-13.0615 -12.6351 0.376363 255 0 0
-16.2884 -11.1684 -0.48261 255 0 0
-14.2605 -12.2676 0.0638281 255 0 0
-13.7918 -12.4321 0.0623032 255 0 0
-14.4792 -12.2015 -0.119817 255 0 0
-14.3122 -12.2519 -0.117672 255 0 0
-14.445 -12.2123 -0.185567 255 0 0
-14.3877 -12.225 -0.212206 255 0 0
-14.2394 -12.2679 -0.300752 255 0 0
-14.6422 -12.167 -0.506291 255 0 0
-13.5689 -12.4848 -0.29827 255 0 0
-14.5501 -12.1699 -1.01639 255 0 0
-13.6074 -12.442 -0.802749 255 0 0
-16.9871 -10.9189 -2.01164 255 0 0
-16.1036 -11.3692 -1.77665 255 0 0
-15.9499 -11.219 -2.67749 255 0 0
-14.0706 -12.2966 -1.97703 255 0 0
-15.1534 -11.9647 -2.53764 255 0 0
-15.5069 -11.8256 -3.45842 255 0 0
-14.6132 -12.1239 -3.27988 255 0 0
-12.9778 -12.5523 1.31299 255 0 0
-13.173 -12.4196 1.25696 255 0 0
-13.0353 -12.511 1.10514 255 0 0
-14.0337 -12.3457 0.948797 255 0 0
-12.8637 -12.5357 1.11642 255 0 0
-14.4154 -12.2451 0.809015 255 0 0
-14.0551 -12.3648 0.853014 255 0 0
-14.0425 -12.3573 0.826243 255 0 0
-16.1113 -10.9175 0.0754816 255 0 0
-16.0453 -10.9228 0.0626639 255 0 0
-15.9679 -10.9604 0.0718617 255 0 0
-14.4855 -12.2204 0.525764 255 0 0
-14.6494 -12.1565 0.104347 255 0 0
-14.5529 -12.1825 0.119922 255 0 0
-16.4596 -11.1012 -0.475114 255 0 0
-13.2261 -12.5898 0.279408 255 0 0
-13.7081 -12.4159 0.122291 255 0 0
-14.611 -12.1682 -0.481769 255 0 0
-14.1714 -12.2942 -0.42892 255 0 0
-14.3392 -12.2414 -0.525687 255 0 0
-13.4373 -12.5073 -0.278361 255 0 0
-15.8619 -11.4693 -1.1255 255 0 0
-15.0181 -11.5022 -0.917722 255 0 0
-14.6291 -12.1312 -1.05528 255 0 0
-13.281 -12.5399 -0.760195 255 0 0
-13.6719 -12.4113 -1.09469 255 0 0
-17.3046 -10.5599 -2.54167 255 0 0
-16.2077 -11.0129 -2.69433 255 0 0
-14.7414 -12.1014 -2.26692 255 0 0
-14.3106 -12.2102 -2.85471 255 0 0
-13.4071 -12.5505 0.905374 255 0 0
-14.3114 -12.2555 0.693706 255 0 0
-13.7702 -12.4299 0.319312 255 0 0
-14.0138 -12.3307 -0.227302 255 0 0
-16.173 -11.2668 -1.58725 255 0 0
-17.3348 -10.697 -2.37096 255 0 0
-13.5071 -12.458 -1.94594 255 0 0
-14.1123 -12.3381 0.875897 255 0 0
-16.6282 -10.7587 0.0722807 255 0 0
-13.3133 -12.5689 0.494424 255 0 0
-14.4928 -12.186 0.221381 255 0 0
-13.6145 -12.4707 -0.270461 255 0 0
-15.7269 -11.4979 -1.12302 255 0 0
-15.9214 -11.4485 -1.18089 255 0 0
-14.9188 -11.2706 0.0383276 255 0 0
-14.777 -11.2848 -0.0380218 255 0 0
-14.7558 -12.1457 -0.282179 255 0 0
-13.7267 -12.4064 -0.686712 255 0 0
-14.1148 -12.3247 0.573043 255 0 0
-16.1519 -11.2486 -1.62071 255 0 0
-15.761 -11.3422 -1.89187 255 0 0
-14.4042 -12.1128 1.10576 255 0 0
-15.3025 -9.4822 0.737024 255 0 0
-14.1287 -12.3334 0.919148 255 0 0
-15.6697 -9.24471 0.660154 255 0 0
-14.5247 -12.2343 0.842572 255 0 0
-14.5826 -12.1897 0.305073 255 0 0
-13.5087 -12.5 0.276796 255 0 0
-15.1591 -11.2092 0.184471 255 0 0
-15.168 -11.2057 0.170163 255 0 0
-16.1921 -10.9042 0.117927 255 0 0
-15.5698 -11.0805 0.0539396 255 0 0
-13.6357 -12.4768 0.0402133 255 0 0
-13.9254 -12.3896 0.0348776 255 0 0
-14.6647 -12.1508 0.0247808 255 0 0
-15.1434 -11.366 -0.128994 255 0 0
-13.5376 -12.504 -0.248836 255 0 0
-17.2877 -10.8285 -0.437489 255 0 0
-16.042 -11.4327 -0.466465 255 0 0
-16.5863 -10.9245 -0.506848 255 0 0
-14.4732 -12.2164 -0.495551 255 0 0
-14.4265 -12.233 -0.501418 255 0 0
-14.2543 -12.293 -0.52101 255 0 0
-13.8491 -12.3899 -0.510698 255 0 0
-13.6402 -12.4349 -0.542853 255 0 0
-16.752 -10.7829 -0.700694 255 0 0
-14.2402 -12.2726 -0.741576 255 0 0
-13.8571 -12.4101 -0.73196 255 0 0
-14.4426 -12.2038 -1.03479 255 0 0
-14.184 -12.2828 -1.03915 255 0 0
-13.7813 -12.3957 -1.10355 255 0 0
-16.4241 -11.0695 -1.31973 255 0 0
-16.333 -11.1079 -1.31751 255 0 0
-18.1152 -10.743 -1.48884 255 0 0
-16.3657 -11.0693 -1.32305 255 0 0
-14.5846 -12.1618 -1.36986 255 0 0
-13.6939 -12.4281 -1.40973 255 0 0
-15.8832 -11.4407 -1.66148 255 0 0
-14.8911 -12.0736 -1.67618 255 0 0
-15.4766 -11.86 -2.20635 255 0 0
-13.7886 -12.4082 -1.9746 255 0 0
-16.8978 -10.9155 -2.38412 255 0 0
-16.9471 -10.909 -2.40391 255 0 0
-15.0875 -11.979 -2.34239 255 0 0
-13.4123 -12.4892 -2.2887 255 0 0
-15.9493 -11.164 -2.64938 255 0 0
-15.1454 -11.9629 -2.76401 255 0 0
-15.4185 -11.8686 -3.0921 255 0 0
-15.593 -11.8098 -3.22828 255 0 0
-14.0931 -12.2601 -2.9092 255 0 0
-14.0317 -12.2772 -2.90363 255 0 0
-15.3751 -11.8992 -3.55398 255 0 0
-16.1693 -11.6179 -3.80751 255 0 0
-15.3515 -9.27349 1.22265 255 0 0
-15.3012 -9.30017 1.2019 255 0 0
-12.8427 -12.5637 1.27314 255 0 0
-12.7594 -12.5728 1.08354 255 0 0
-14.3834 -12.1165 1.11633 255 0 0
-14.4582 -12.0891 1.12172 255 0 0
-15.1941 -11.1509 1.08229 255 0 0
-13.8496 -12.4018 0.956853 255 0 0
-13.9297 -12.3847 0.958753 255 0 0
-13.3213 -12.5563 0.905387 255 0 0
-13.2962 -12.5745 0.885877 255 0 0
-15.1732 -11.1886 0.871115 255 0 0
-13.9357 -12.438 0.857254 255 0 0
-14.3957 -12.2499 0.812031 255 0 0
-15.1762 -11.1878 0.684701 255 0 0
-16.6903 -10.7476 0.271913 255 0 0
-14.5644 -12.1684 0.0303636 255 0 0
-14.3763 -12.2506 -0.00426226 255 0 0
-16.3588 -11.1504 -0.33187 255 0 0
-14.2765 -12.266 -0.287688 255 0 0
-16.5119 -11.0211 -0.440357 255 0 0
-14.4859 -12.2126 -0.460041 255 0 0
-13.7245 -12.4257 -0.533159 255 0 0
-13.0334 -12.6302 -0.544966 255 0 0
-15.7386 -11.4404 -0.771133 255 0 0
-15.739 -11.4929 -0.93427 255 0 0
-15.9357 -11.4433 -1.10441 255 0 0
-16.3687 -11.1098 -1.28308 255 0 0
-13.4242 -12.4993 -1.14303 255 0 0
-14.4182 -12.2056 -1.31433 255 0 0
-16.6881 -11.0008 -2.11496 255 0 0
-14.8933 -12.0589 -2.23099 255 0 0
-14.0287 -12.2861 -2.9388 255 0 0
-14.1727 -12.2082 -3.01454 255 0 0
-15.5134 -11.8151 -3.45814 255 0 0
-14.8184 -11.2792 0.580828 255 0 0
-13.756 -12.4446 0.512707 255 0 0
-14.5465 -12.182 0.136421 255 0 0
-13.6313 -12.4591 0.109598 255 0 0
-13.8815 -12.4141 0.0774849 255 0 0
-14.2272 -12.293 0.0637294 255 0 0
-13.8122 -12.4335 0.0427024 255 0 0
-14.4384 -12.2227 0.0332687 255 0 0
-13.6549 -12.4638 0.0151309 255 0 0
-13.9934 -12.3406 -0.0130322 255 0 0
-14.4012 -12.2292 -0.115061 255 0 0
-16.5475 -11.0522 -0.415967 255 0 0
-13.4992 -12.4882 -0.53764 255 0 0
-13.4687 -12.5039 -0.692772 255 0 0
-17.4943 -10.7816 -1.25271 255 0 0
-15.9455 -11.4456 -1.14831 255 0 0
-13.5673 -12.4468 -1.09891 255 0 0
-15.8197 -11.4752 -1.54218 255 0 0
-13.5408 -12.472 -1.39856 255 0 0
-13.4468 -12.4881 -1.74203 255 0 0
-17.5663 -10.3231 -3.04346 255 0 0
-16.3135 -10.9875 -3.52706 255 0 0
-15.136 -11.9356 -3.59234 255 0 0
-14.4965 -12.1428 -3.60371 255 0 0
-13.8253 -12.3368 -3.65313 255 0 0
-14.5292 -12.1202 -3.87143 255 0 0
-12.6363 -12.569 1.33032 255 0 0
-15.7021 -9.23138 0.884373 255 0 0
-13.5733 -12.475 0.855839 255 0 0
-14.0519 -12.3026 0.816852 255 0 0
-13.6636 -12.4493 0.761103 255 0 0
-15.5664 -11.0728 0.0453452 255 0 0
-13.702 -12.4178 0.0304416 255 0 0
-17.7093 -10.6172 -0.17483 255 0 0
-14.5613 -12.1886 -0.217021 255 0 0
-14.8459 -11.6106 -0.355436 255 0 0
-16.6192 -10.8531 -0.49589 255 0 0
-16.8211 -10.922 -1.00395 255 0 0
-14.3695 -12.2269 -1.01242 255 0 0
-14.1426 -12.297 -1.36211 255 0 0
-14.9221 -11.9751 -1.65743 255 0 0
-13.5977 -12.4534 -1.94653 255 0 0
-13.9812 -12.3101 0.943053 255 0 0
-13.6948 -12.4624 0.893278 255 0 0
-14.4177 -12.2835 0.521512 255 0 0
-14.133 -12.3177 0.328911 255 0 0
-14.976 -11.2593 0.000652552 255 0 0
-14.5106 -12.1987 -0.516455 255 0 0
-13.8481 -12.4109 -0.635576 255 0 0
-14.6656 -12.0933 -2.66022 255 0 0
-13.0244 -12.4753 1.1727 255 0 0
-13.7668 -12.4104 0.944711 255 0 0
-13.3019 -12.5724 0.878882 255 0 0
-13.7018 -12.421 0.843423 255 0 0
-16.0392 -10.8301 0.330811 255 0 0
-16.3413 -11.1326 -0.498854 255 0 0
-13.0175 -12.6247 -0.772371 255 0 0
-16.4062 -11.1221 -1.39783 255 0 0
-15.8873 -11.4356 -1.61394 255 0 0
-15.5267 -11.7641 -3.22733 255 0 0
-13.3061 -12.5215 0.538271 255 0 0
-14.9166 -11.2482 0.503587 255 0 0
-15.2162 -11.1656 -0.0279317 255 0 0
-13.6858 -12.4536 -0.218955 255 0 0
-16.6294 -11.0902 -1.23328 255 0 0
-13.7433 -12.3877 -1.36678 255 0 0
-16.1838 -11.2217 -1.62335 255 0 0
-17.4218 -10.5382 -2.19052 255 0 0
-15.5611 -9.30276 0.62687 255 0 0
-15.0685 -11.2303 0.0476095 255 0 0
-17.0497 -11.0641 -2.10547 255 0 0
-16.4649 -11.0283 -3.37214 255 0 0
-13.5584 -12.4024 -3.51032 255 0 0
-15.9824 -11.6775 -3.68631 255 0 0
-15.2619 -11.9088 -3.59409 255 0 0
-13.7274 -12.3584 -3.35345 255 0 0
-15.984 -11.6865 -3.58483 255 0 0
-13.4277 -12.4621 -3.26132 255 0 0
-15.5012 -11.8291 -3.44096 255 0 0
-13.8699 -12.3309 -3.26583 255 0 0
-16.6823 -10.729 -3.28309 255 0 0
-15.2709 -11.8985 -3.3846 255 0 0
-15.2414 -11.9108 -3.37864 255 0 0
-16.7036 -10.7311 -3.27202 255 0 0
-15.3366 -11.8779 -3.37541 255 0 0
-14.654 -12.1075 -3.29367 255 0 0
-17.0943 -10.617 -3.26306 255 0 0
-13.7796 -12.3515 -3.16808 255 0 0
-14.7742 -12.0614 -3.24581 255 0 0
-15.1171 -11.9754 -3.25629 255 0 0
-14.8115 -12.0607 -3.2267 255 0 0
-18.8513 -10.8051 -3.59399 255 0 0
-15.0824 -11.9616 -3.24501 255 0 0
-15.5865 -11.8158 -3.20831 255 0 0
-17.5799 -10.3553 -3.03438 255 0 0
-15.7433 -11.7578 -3.12056 255 0 0
-14.2961 -12.2008 -2.9861 255 0 0
-15.6841 -11.7796 -3.07065 255 0 0
-15.7209 -11.771 -3.07111 255 0 0
-14.3005 -12.2293 -2.9345 255 0 0
-14.0694 -12.2713 -2.88964 255 0 0
-14.3162 -12.2098 -2.90871 255 0 0
-14.3036 -12.221 -2.88608 255 0 0
-15.3033 -11.9089 -2.90681 255 0 0
-15.3609 -11.8898 -2.90841 255 0 0
-15.4062 -11.8876 -2.908 255 0 0
-15.3254 -11.8948 -2.87024 255 0 0
-15.2935 -11.897 -2.84957 255 0 0
-18.9816 -10.7984 -3.13584 255 0 0
-14.2714 -12.2175 -2.76631 255 0 0
-14.5306 -12.1392 -2.68128 255 0 0
-13.4271 -12.4821 -2.59415 255 0 0
-14.5964 -12.1215 -2.65707 255 0 0
-18.8942 -10.8266 -2.79422 255 0 0
-18.8803 -10.8286 -2.76803 255 0 0
-18.9632 -10.8028 -2.76787 255 0 0
-18.9974 -10.791 -2.76352 255 0 0
-18.2071 -10.3356 -2.43851 255 0 0
-15.2759 -11.9202 -2.39883 255 0 0
-14.3515 -12.2076 -2.27426 255 0 0
-14.0486 -12.3025 -2.25384 255 0 0
-14.7943 -12.0645 -2.21515 255 0 0
-15.3889 -11.8882 -2.22297 255 0 0
-15.4595 -11.8802 -2.20732 255 0 0
-18.0394 -10.7441 -2.09482 255 0 0
-18.0591 -10.7427 -2.08643 255 0 0
-15.014 -12.0014 -1.94425 255 0 0
-13.5546 -12.4459 -1.82121 255 0 0
-18.0793 -10.7323 -1.88981 255 0 0
-18.0688 -10.7375 -1.87299 255 0 0
-18.0685 -10.7392 -1.83395 255 0 0
-15.8608 -11.4149 -1.71208 255 0 0
-15.8424 -11.4188 -1.71018 255 0 0
-14.7312 -12.0973 -1.63044 255 0 0
-14.3469 -12.2149 -1.62099 255 0 0
-18.0728 -10.7441 -1.65175 255 0 0
-18.1312 -10.7274 -1.64836 255 0 0
-18.0627 -10.7608 -1.65143 255 0 0
-18.0868 -10.7573 -1.64189 255 0 0
-18.126 -10.7274 -1.63448 255 0 0
-18.1085 -10.7342 -1.63596 255 0 0
-17.0194 -10.8957 -1.58248 255 0 0
-17.0163 -10.8993 -1.57031 255 0 0
-18.301 -10.6791 -1.57924 255 0 0
-13.8645 -12.3701 -1.47731 255 0 0
-17.077 -10.9112 -1.36797 255 0 0
-18.1136 -10.6557 -1.36058 255 0 0
-16.9393 -10.8778 -1.31184 255 0 0
-16.9223 -10.9785 -1.27558 255 0 0
-17.6274 -10.7324 -1.25334 255 0 0
-16.7942 -10.8569 -1.01161 255 0 0
-17.9962 -10.8324 -1.0257 255 0 0
-16.8553 -10.8566 -0.989257 255 0 0
-17.6045 -10.7498 -1.00185 255 0 0
-15.4168 -11.5724 -1.00529 255 0 0
-13.8248 -12.3797 -1.01308 255 0 0
-13.775 -12.3937 -0.99053 255 0 0
-15.7636 -11.3729 -0.785796 255 0 0
-18.0792 -10.6954 -0.756475 255 0 0
-17.6179 -10.7485 -0.741969 255 0 0
-13.3464 -12.5202 -0.789311 255 0 0
-13.7696 -12.3977 -0.667201 255 0 0
-13.6075 -12.4535 -0.616002 255 0 0
-16.2377 -11.1725 -0.518875 255 0 0
-16.4969 -11.0955 -0.507926 255 0 0
-13.4118 -12.5131 -0.602695 255 0 0
-13.399 -12.5393 -0.554781 255 0 0
-15.3645 -11.1506 0.00688728 255 0 0
-14.0426 -12.3057 -0.0504647 255 0 0
-14.8986 -11.2873 0.032852 255 0 0
-15.5279 -11.095 0.0669593 255 0 0
-15.2055 -11.1913 0.0735872 255 0 0
-17.2594 -10.57 0.222175 255 0 0
-17.2532 -10.5746 0.234468 255 0 0
-15.1289 -11.2213 0.183579 255 0 0
-14.2483 -12.2942 0.318436 255 0 0
-13.6218 -12.4768 0.28947 255 0 0
-13.1837 -12.5941 0.484358 255 0 0
-14.4764 -12.2216 0.697097 255 0 0
-13.6729 -12.4544 0.693163 255 0 0
-15.2726 -9.54118 0.801114 255 0 0
-13.9628 -12.2912 -3.74147 255 0 0
-15.8118 -11.7319 -3.77666 255 0 0
-14.4447 -12.1599 -3.59777 255 0 0
-14.4548 -12.1527 -3.57864 255 0 0
-14.8672 -12.0407 -3.59804 255 0 0
-14.6294 -12.0854 -3.5575 255 0 0
-15.8327 -11.7224 -3.6814 255 0 0
-14.5694 -12.1226 -3.53829 255 0 0
-16.1825 -11.6238 -3.7097 255 0 0
-13.5116 -12.4306 -3.41794 255 0 0
-15.844 -11.7205 -3.66767 255 0 0
-14.23 -12.2169 -3.47695 255 0 0
-15.554 -11.8283 -3.52357 255 0 0
-15.2953 -11.8872 -3.4615 255 0 0
-14.6801 -12.0935 -3.40462 255 0 0
-15.1866 -11.9325 -3.45029 255 0 0
-15.4071 -11.8501 -3.46349 255 0 0
-15.4018 -11.8592 -3.44851 255 0 0
-14.4131 -12.1558 -3.34167 255 0 0
-15.7173 -11.7596 -3.45924 255 0 0
-13.8864 -12.3218 -3.2744 255 0 0
-16.6829 -10.7383 -3.27537 255 0 0
-15.2523 -11.9098 -3.36501 255 0 0
-15.3308 -11.8816 -3.35328 255 0 0
-15.1629 -11.9485 -3.32693 255 0 0
-17.1241 -10.6079 -3.26117 255 0 0
-14.703 -12.1004 -3.27459 255 0 0
-13.9105 -12.3178 -3.16935 255 0 0
-15.1137 -11.9739 -3.27548 255 0 0
-15.5225 -11.8283 -3.3029 255 0 0
-14.1067 -12.2544 -3.15437 255 0 0
-13.3883 -12.4621 -3.04182 255 0 0
-13.4114 -12.4671 -3.02904 255 0 0
-14.1475 -12.2477 -3.05912 255 0 0
-13.4502 -12.4687 -2.96891 255 0 0
-14.5006 -12.1656 -3.04878 255 0 0
-14.0354 -12.2786 -2.83211 255 0 0
-14.0314 -12.2728 -2.8169 255 0 0
-15.306 -11.9086 -2.88646 255 0 0
-18.8178 -10.8341 -3.14312 255 0 0
-19.1574 -10.7322 -3.1114 255 0 0
-19.354 -10.671 -3.09406 255 0 0
-15.1707 -11.9531 -2.72393 255 0 0
-18.6067 -10.8885 -2.93925 255 0 0
-14.1345 -12.2894 -2.62233 255 0 0
-18.9451 -10.7994 -2.91391 255 0 0
-16.2825 -10.8776 -2.51671 255 0 0
-16.3094 -10.8634 -2.50426 255 0 0
-18.7978 -10.8506 -2.7965 255 0 0
-18.8179 -10.8583 -2.77894 255 0 0
-18.9348 -10.8157 -2.77415 255 0 0
-19.294 -10.7137 -2.78931 255 0 0
-17.451 -10.5374 -2.44137 255 0 0
-17.4904 -10.5379 -2.42854 255 0 0
-18.1825 -10.4187 -2.38743 255 0 0
-15.5003 -11.848 -2.36709 255 0 0
-14.0723 -12.2958 -2.26957 255 0 0
-14.2874 -12.2274 -2.24807 255 0 0
-14.6766 -12.1158 -2.25431 255 0 0
-15.0998 -11.985 -2.1359 255 0 0
-18.1609 -10.5659 -2.16865 255 0 0
-15.0993 -11.9828 -2.11529 255 0 0
-14.5643 -12.1499 -2.06915 255 0 0
-16.6626 -11.0049 -1.90029 255 0 0
-15.6576 -11.479 -1.66646 255 0 0
-17.0488 -10.8982 -1.58347 255 0 0
-18.0655 -10.7582 -1.63494 255 0 0
-17.1247 -10.9301 -1.54226 255 0 0
-13.1502 -12.5749 -1.48996 255 0 0
-18.4065 -10.6653 -1.46054 255 0 0
-13.4379 -12.5129 -1.37508 255 0 0
-16.8134 -10.9911 -1.11605 255 0 0
-15.9741 -11.4425 -1.08945 255 0 0
-16.8611 -10.8483 -1.03435 255 0 0
-16.4708 -11.0822 -1.04144 255 0 0
-16.3911 -11.1046 -1.03793 255 0 0
-13.9567 -12.3529 -1.0857 255 0 0
-17.4932 -10.781 -1.01966 255 0 0
-14.1316 -12.3092 -1.05927 255 0 0
-14.2203 -12.2774 -1.04304 255 0 0
-14.8786 -11.5796 -0.890632 255 0 0
-15.4958 -11.6038 -0.876667 255 0 0
-15.8254 -11.3657 -0.783901 255 0 0
-16.8042 -10.7388 -0.734442 255 0 0
-16.0739 -11.4116 -0.750954 255 0 0
-16.0914 -11.4087 -0.742646 255 0 0
-16.839 -10.7174 -0.691199 255 0 0
-16.1195 -11.4022 -0.73188 255 0 0
-14.0663 -12.3169 -0.778015 255 0 0
-14.0728 -12.3225 -0.759391 255 0 0
-14.0951 -12.3248 -0.754152 255 0 0
-14.2586 -12.2586 -0.741573 255 0 0
-14.5351 -12.1884 -0.735742 255 0 0
-14.6809 -12.1368 -0.72428 255 0 0
-16.3948 -11.1195 -0.631125 255 0 0
-16.3854 -11.1265 -0.612611 255 0 0
-16.6183 -10.9215 -0.529164 255 0 0
-16.4545 -11.1017 -0.522885 255 0 0
-16.5991 -10.9198 -0.501346 255 0 0
-17.3493 -10.8439 -0.494958 255 0 0
-15.8559 -11.4854 -0.530564 255 0 0
-14.2242 -12.2881 -0.526027 255 0 0
-14.6081 -12.1798 -0.503577 255 0 0
-14.7682 -12.1258 -0.492523 255 0 0
-14.2077 -12.2676 -0.471273 255 0 0
-13.6994 -12.4149 -0.453702 255 0 0
-13.3859 -12.5171 -0.403047 255 0 0
-13.2417 -12.5611 -0.371484 255 0 0
-13.5333 -12.4826 -0.297956 255 0 0
-14.4896 -12.2095 -0.261999 255 0 0
-14.4884 -12.2103 -0.245164 255 0 0
-14.5136 -12.1994 -0.133002 255 0 0
-14.494 -12.2021 -0.128312 255 0 0
-14.6742 -11.3457 -0.0490804 255 0 0
-17.4839 -10.4977 0.0916461 255 0 0
-16.8432 -10.6941 0.0883468 255 0 0
-14.2939 -12.2666 -0.0296347 255 0 0
-16.2207 -10.884 0.0706072 255 0 0
-15.6329 -11.0622 0.0460229 255 0 0
-15.5424 -11.0934 0.060591 255 0 0
-15.8327 -11.0049 0.0908674 255 0 0
-14.9768 -11.2619 0.0535233 255 0 0
-14.6721 -11.3565 0.0573944 255 0 0
-13.928 -12.3883 0.0336007 255 0 0
-13.2789 -12.5546 0.0233714 255 0 0
-14.4729 -12.2191 0.0860737 255 0 0
-16.3622 -10.8437 0.186273 255 0 0
-16.9854 -10.657 0.226961 255 0 0
-17.0004 -10.6575 0.238944 255 0 0
-16.3572 -10.8479 0.20666 255 0 0
-15.9154 -10.9816 0.189182 255 0 0
-15.3984 -11.136 0.16617 255 0 0
-15.1188 -11.2188 0.15118 255 0 0
-16.5474 -10.7898 0.22789 255 0 0
