309.054 18.0126 726.781
309 19.0969 726.957
309.014 19.9844 726.928
309.035 20.9609 723.789
309.103 22.0627 726.899
308.973 22.9635 726.66
308.844 24.0327 726.79
309.07 25.125 726.808
309.049 25.9885 726.737
308.986 28.9936 571.527
308.941 30.1341 571.593
309.051 30.9039 571.816
309.02 31.9766 570.002
308.829 32.9652 570.016
308.88 34.0237 569.893
309.055 35.0253 569.888
308.718 36.1263 569.915
309.074 36.9534 570.097
308.827 38.0431 569.966
308.907 39.1942 569.882
308.951 40.0109 569.968
309.029 41.0172 569.926
308.995 41.9877 570.014
308.96 43.0129 569.804
308.901 43.9721 568.256
308.828 44.8021 568.326
309.129 45.8654 568.237
308.937 47.0959 568.172
309.216 47.9294 566.452
308.985 49.0739 566.19
308.973 50.0987 564.525
308.912 51.1134 564.512
309.021 52.1215 564.462
308.869 53.0726 562.756
308.915 54.05 560.821
309.202 55.0964 560.867
308.904 55.9649 559.232
309.121 57.1186 557.629
309.027 57.9991 557.079
309.272 58.9674 557.422
308.997 59.9364 555.775
309.041 61.1324 555.781
309.032 61.9547 554.038
308.696 63.0618 552.4
308.919 64.1232 552.397
308.956 65.0828 550.759
309.096 66.1635 550.781
309.029 66.7633 548.971
308.866 67.9047 549.062
308.866 69.2095 548.966
309.155 70.1048 547.335
309.112 70.9613 547.112
308.817 71.9889 547.302
308.933 72.9842 547.184
308.927 73.9148 547.327
308.871 75.1595 547.332
309.132 75.9473 545.66
308.97 76.9452 545.517
308.928 77.994 545.674
309.027 78.8637 545.778
308.97 79.9168 545.716
309.104 80.9893 545.691
308.989 82.1047 543.994
308.927 83.0729 544.04
309.026 83.8274 543.935
309.222 84.7595 543.954
308.818 86.0143 544.028
308.985 87.0445 543.98
308.778 87.8151 542.217
309.012 89.129 542.287
308.959 90.1842 542.39
308.808 91.0039 542.356
309.059 91.9553 542.437
309.157 92.9923 542.246
308.889 94.1518 540.872
309.003 94.9643 540.644
308.961 96.0496 540.823
308.973 96.8668 540.732
309.073 97.819 540.707
308.89 99.0849 540.807
309.013 99.9721 539.061
309.137 100.934 539.193
308.866 102.025 538.942
309.026 103.082 538.941
309.223 103.824 539.03
309.109 104.805 539.095
308.955 106.03 537.648
309.123 107.154 537.596
309.027 107.972 537.385
308.997 108.97 537.567
309.036 109.846 537.529
309.048 111.041 537.501
308.768 111.998 537.546
308.951 112.87 537.523
308.936 113.872 537.644
308.931 115.108 535.938
308.909 116.076 535.877
308.957 117.135 535.856
308.973 118.097 535.818
309.064 119.179 535.819
309.113 119.925 534.322
309.091 121.185 534.196
308.931 121.957 534.357
309.028 122.948 534.428
308.88 124.041 534.208
308.988 125.143 534.339
309.066 126.105 534.127
308.97 126.896 534.331
308.956 127.922 532.737
308.964 128.931 532.616
308.842 129.912 532.71
308.978 130.7 532.881
309.079 132.025 532.909
308.988 132.988 532.715
309.179 133.904 532.504
309.138 134.996 532.643
308.806 136.066 532.579
309.044 137.048 532.633
309.212 138.118 532.628
308.966 139.007 532.68
308.929 139.895 532.714
308.965 140.915 532.728
309.098 142.093 531.133
309.203 143.053 531.124
308.942 144.066 531.13
308.83 145.01 531.247
309.047 146.018 531.055
308.945 147.107 530.99
308.978 148.032 530.993
309.077 149.179 531.102
309.032 150.163 531.135
309.057 150.962 531.017
309.089 152.055 531.089
309.051 152.871 531.025
308.987 153.887 531.063
308.985 155.107 531.093
309.129 156.072 531.223
309.121 157.223 531.179
308.968 158.007 531.077
308.983 158.971 531.119
308.973 160.033 531.102
308.961 160.957 531.122
309 161.937 532.611
309.08 163.091 532.65
308.968 163.815 532.791
309.058 164.997 532.739
309.034 166.033 532.65
309.026 167.047 532.845
309.064 167.987 532.753
309.221 169.108 532.75
308.926 170.121 532.773
308.999 170.827 532.55
308.978 172.117 532.644
308.912 172.851 534.063
308.979 174.152 534.371
308.998 174.983 534.327
308.829 176.163 534.254
308.849 176.988 534.226
308.899 178.002 535.991
309.011 178.913 535.873
308.884 180.141 535.826
309.18 180.967 535.835
308.963 182.112 537.516
308.798 183.015 537.36
308.929 183.969 537.352
309.141 185.072 539.01
309.024 185.845 539.141
308.886 187.111 539.307
309.018 187.808 540.8
309.048 188.892 540.619
308.965 190.032 540.651
308.973 190.93 542.466
309.167 192.057 542.399
308.822 193.011 544.2
309.079 194.033 545.598
308.995 194.946 547.16
309.088 195.956 547.398
308.901 197.072 548.945
309.215 197.996 549.005
308.961 199.168 547.365
309.027 200.141 545.535
309.047 201.036 544.013
309.061 201.946 542.334
308.919 202.954 540.627
308.933 204.012 540.745
308.801 205.106 539.093
309.159 205.933 537.59
309.012 206.871 537.481
308.925 208.102 537.57
309 209.152 537.39
309.078 209.983 535.912
309.01 211.019 536.002
308.985 212.073 534.268
308.852 212.974 534.181
308.906 214.032 534.343
309.056 214.929 532.7
309.137 215.926 532.701
308.974 217.144 532.707
308.989 218.153 532.582
309.126 219.111 531.006
308.974 220.107 531.164
308.987 220.862 531.13
309.026 221.795 531.074
308.759 223.149 529.704
309.037 223.986 529.695
308.909 225.023 529.493
308.938 226.016 529.587
309.091 227.019 529.643
308.9 228.061 529.553
309.023 229.051 528.157
308.924 229.857 528.095
308.821 230.878 527.861
309.051 231.975 527.987
309.009 233.1 527.996
309.11 233.937 527.939
308.856 234.968 527.886
309.027 236.056 527.774
309.047 237.146 527.982
309.03 237.912 528.295
308.809 238.92 526.41
309.02 240.013 526.477
309.114 241.054 526.6
309.107 242.052 526.488
308.852 243.12 526.449
309.042 244.134 526.506
309.081 245.127 526.325
308.954 245.955 526.336
309.056 247.019 526.474
308.831 247.892 526.529
308.993 248.96 526.228
308.921 249.835 526.538
308.985 251.023 526.396
308.95 252.001 526.44
309.105 253.116 526.534
309.035 254.052 526.411
308.933 255.037 526.523
308.984 255.849 526.538
309.066 257.011 526.463
309.1 258.021 526.319
308.942 258.964 526.5
309.018 259.993 526.506
308.936 260.977 526.298
309.055 261.94 526.376
308.957 262.997 526.456
308.834 264.051 526.537
309.017 264.972 526.447
309.883 -0.145746 726.821
310.201 0.875834 726.918
309.922 1.79777 726.966
310.153 3.16085 726.937
310.036 4.13376 726.815
310.05 4.95025 726.741
309.917 5.86408 726.836
309.817 6.99352 726.769
310.005 8.08104 726.783
309.932 8.92932 723.586
309.879 9.97508 726.953
309.793 10.9609 726.824
309.989 11.9311 726.706
310.015 13.0102 726.721
309.878 13.9776 726.926
309.891 14.9504 723.988
309.928 16.1524 726.912
309.92 17.0449 726.75
310.112 18.3152 726.974
310.284 19.0071 726.81
310.032 19.9538 726.948
309.975 20.9801 726.816
310.053 22.1522 726.796
309.974 22.9215 726.835
310.117 23.9207 726.901
310.246 24.9899 726.82
309.965 25.9068 726.85
310.02 29.1237 571.639
310.186 29.8933 569.815
310.051 31.0398 569.883
310.007 32.0727 570.012
310.247 33.0204 569.876
310.016 34.0935 569.81
309.944 34.9013 569.885
310.017 36.1479 569.987
309.844 37.0416 569.913
309.948 38.1314 570.102
310.023 38.9571 569.795
310.059 39.879 568.238
310.097 41.0753 567.925
309.948 41.9016 568.131
309.741 43.1622 568.023
309.953 43.9142 567.973
310.015 45.1221 568.025
310.059 45.8307 568.053
310.117 46.9018 566.217
309.948 47.9384 566.312
310.131 49.1101 564.556
309.864 49.8575 564.612
309.939 50.954 564.714
309.999 51.9892 564.419
309.962 52.9792 562.772
310.02 53.9761 561.246
309.945 55.0534 559.348
309.942 56.1674 559.388
310.04 57.0953 557.5
309.97 57.8609 557.534
310.143 58.9289 555.827
309.844 59.79 555.908
310.03 61.0594 555.701
309.931 62.1597 554.128
309.968 62.9503 554.165
310.105 63.9153 552.317
309.861 64.9988 550.836
310 65.9606 550.762
309.865 67.0002 549.025
310.058 67.9745 549.001
309.979 69.1573 547.28
309.995 70.1343 547.177
310.05 71.0829 547.218
310.049 72.0163 547.52
309.946 73.0511 547.406
309.923 73.7811 547.472
309.697 74.9811 545.982
310.156 75.8882 545.601
310.007 77.2057 545.725
309.897 77.9335 545.722
309.918 79.21 545.714
309.825 80.1058 543.969
309.854 80.9096 544.056
309.981 82.0544 543.835
310.249 83.0389 543.959
310.007 83.9018 543.988
310.158 85.0109 543.941
309.995 86.1654 542.418
310.086 86.9579 542.414
309.99 87.8518 542.226
309.892 89.0695 542.383
309.983 89.9247 542.556
310.179 90.8533 542.314
310.055 92.0435 540.868
309.988 92.9707 540.577
309.906 93.9187 540.82
310.062 95.0598 540.536
310.003 96.0863 540.735
310.085 97.028 540.631
310.09 97.933 540.74
310.036 98.8279 538.995
310.141 100.128 539.165
309.901 100.942 539.038
309.899 101.866 539.143
310.075 103.009 539.114
309.918 103.902 537.343
310.009 105.11 537.324
310.055 106.026 537.438
309.873 106.868 537.2
310.163 107.96 537.638
310.178 108.951 537.441
310.024 110.037 537.517
309.945 110.956 535.978
309.816 111.837 535.879
310.069 112.805 535.767
309.997 114.186 535.862
310.01 115.109 535.9
310.058 115.997 535.757
309.997 116.979 535.839
309.915 117.933 535.92
310.235 118.842 534.327
310.097 119.993 534.204
309.974 120.919 534.23
309.932 122.117 534.409
310.014 123.033 534.171
309.998 123.884 534.506
310.167 124.984 534.265
310.133 125.82 532.827
309.942 126.97 532.684
310.038 128.146 532.898
310.021 129.022 532.634
309.991 130.209 532.652
310.09 131.047 532.664
309.938 131.86 532.786
310.043 133.024 532.503
309.91 133.934 532.848
310.052 135.032 532.634
309.871 135.818 532.49
309.807 137.049 531.064
310.024 138.01 532.577
310.064 138.966 531.153
309.792 140.018 531.189
310.091 140.872 531.207
310.058 142.136 531.201
309.852 142.944 530.913
309.925 144.076 531.208
310.034 145.05 531.043
309.921 145.841 531.217
309.956 147.006 531.205
310.106 148.116 531.053
310.064 148.969 531.262
309.898 149.989 531.172
309.932 150.908 531.08
309.909 152.111 530.985
310.139 152.848 531.08
309.904 153.982 531.118
310.183 154.992 531.091
309.932 156.053 531.058
310.083 156.869 531.12
309.991 157.941 531.294
309.923 159.088 531.255
310.019 159.941 531.165
310.034 161.051 531.07
309.976 161.974 531.2
310.001 163.037 531.134
309.703 164.039 531.112
310.119 164.946 531.126
310.098 165.769 532.69
310.04 166.999 532.74
309.796 168.105 532.626
309.949 168.979 532.849
309.923 170.036 532.739
310.112 171.093 532.627
310.038 171.994 532.728
309.98 173.047 532.763
310.118 173.836 534.409
310.093 174.965 534.459
309.962 175.797 534.164
309.983 176.902 534.365
309.854 177.993 534.355
309.94 178.868 535.817
310.004 179.756 535.796
309.833 181.133 535.768
310.068 182.15 535.894
310.033 182.971 537.393
310.254 184.046 537.415
309.995 185.062 537.453
310.013 185.969 539.151
309.82 186.83 539.07
309.923 187.991 540.714
310.001 188.852 540.802
309.888 189.817 540.705
310.095 190.712 542.335
309.975 191.771 542.386
310.036 192.931 544.069
309.869 193.841 545.8
309.989 195.124 545.657
310.102 195.928 547.488
309.833 196.989 549.018
310.02 197.988 550.669
310.068 199.004 545.697
309.889 200.028 545.7
309.836 200.849 543.921
310.013 202.05 542.186
309.813 202.973 540.77
309.841 204.035 539.029
310.226 205.022 539.051
310.215 206.024 537.605
309.997 207.051 537.526
309.983 207.881 537.475
309.919 209.057 535.824
309.901 210.113 535.879
309.996 210.825 535.759
309.879 211.812 534.249
310.069 213.032 534.271
309.88 214.244 532.78
309.937 215.087 532.77
309.968 216.006 532.743
310.072 217.094 531.05
309.981 217.961 531.167
309.98 218.807 531.052
309.895 219.874 531.205
310.036 221.068 531.239
309.915 222.143 529.567
310.012 222.972 529.582
309.96 223.977 529.648
310.116 225.076 529.436
309.815 225.971 529.493
309.837 227.199 528.11
309.871 228.037 528.191
310.198 229.046 528.154
309.922 230.272 527.966
309.865 231.022 527.928
309.941 231.884 527.995
309.946 232.948 527.939
310.102 234.1 527.996
310.003 235.14 526.381
310.073 235.943 526.494
310.027 237.041 526.484
310.001 238.033 526.439
309.971 239.012 526.435
310.004 239.862 526.379
309.846 241.02 526.458
310.011 241.947 526.202
309.976 242.916 526.499
309.826 243.979 526.529
309.791 244.936 526.507
310.058 246.092 526.526
310.035 247.065 526.757
310.037 247.97 526.455
310.033 249.232 526.339
310.013 249.987 526.51
309.956 250.989 526.588
309.879 252.009 526.502
309.879 253.01 526.442
310.009 253.904 526.384
310.112 254.945 526.607
309.983 256.1 526.469
309.961 257.013 526.467
310.141 258.078 526.454
309.973 259.056 526.449
309.882 259.7 526.362
310.048 261.143 526.513
310.101 261.956 526.533
309.865 262.895 526.465
310.01 264.197 526.488
309.963 264.929 526.492
311.123 0.0823547 726.753
310.878 1.1107 726.791
311.169 1.9888 726.87
311.139 3.06988 726.897
311.214 4.01808 726.758
310.91 5.09866 726.767
311.109 6.05954 726.868
311.045 7.02201 726.735
311.115 8.01921 726.818
311.101 9.05476 723.834
310.912 10.1353 723.641
310.954 10.8557 726.764
311.046 12.0613 726.817
310.976 12.987 726.733
310.953 13.9397 726.943
311.076 15.0727 723.815
311.053 15.9341 723.917
311.085 16.9037 726.788
311.151 18.1272 726.835
311.249 19.1272 726.785
311.036 20.0449 726.755
310.848 20.8469 726.802
310.972 22.0396 726.742
311.079 23.0583 726.945
310.963 23.9857 726.894
310.84 25.0107 726.808
310.871 25.8532 726.823
311.171 29.1738 569.967
310.896 30.0239 569.796
311.087 31.0324 569.948
310.846 31.82 569.89
310.952 33.0485 569.986
310.952 34.2071 569.876
311.21 35.1665 570.045
310.879 36.0248 567.825
310.903 36.899 568.244
310.921 38.1377 568.082
311.065 38.8022 568.256
311.049 39.9524 568.118
311.015 40.9254 568.137
310.985 42.1624 567.965
310.899 43.1656 568.213
311.077 44.0423 568.174
311.118 45.237 568.233
310.891 46.0281 568.249
311.03 46.914 566.267
311.059 48.0741 566.365
311.072 48.985 564.397
310.96 49.8547 564.367
311.107 51.1045 562.69
311.06 52.0199 562.761
311.04 53.1368 561.033
311.117 53.9766 561.021
310.931 54.9009 559.218
310.888 56.0158 559.208
310.962 56.8943 557.524
311.03 57.9242 557.372
310.93 58.8661 555.875
310.984 59.9186 553.958
310.95 60.9299 553.969
311.032 62.0481 554.002
311.072 62.9355 552.383
311.001 63.9478 552.412
310.914 64.9745 550.649
310.944 65.9064 549.011
310.899 67.0053 549.053
310.986 68.0066 548.903
311.021 69.0532 547.216
310.98 70.0786 547.174
311.094 71.0325 547.166
311.022 71.9604 545.749
310.967 73.0491 545.711
310.963 74.0794 545.52
311.049 75.0916 545.516
310.837 75.777 545.523
310.874 76.9381 545.587
310.829 78.1465 545.504
310.856 78.8957 545.816
311.043 80.0739 543.953
310.981 80.9545 543.855
310.791 81.9381 543.902
310.992 83.0008 544.036
310.935 83.979 544.029
310.754 84.8348 542.381
310.902 86.1686 542.387
311.166 86.9334 542.23
310.895 87.8577 542.315
310.874 89.0567 542.521
311.06 89.9839 540.629
311.083 91.0514 540.619
310.992 91.8274 540.73
311.072 92.8679 540.83
311.014 94.0071 540.863
310.832 95.0794 540.649
311.027 95.9769 540.745
311.021 97.0298 540.801
310.87 98.0937 539.143
310.992 99.0527 539.059
310.994 100.051 538.953
310.979 101.084 539.319
311.185 101.992 539.013
311.082 102.982 537.464
311.122 103.901 537.43
311.077 105.208 537.558
310.896 105.916 537.504
311.12 106.977 537.439
310.999 108.06 537.398
311.033 108.898 537.622
311.213 109.932 535.811
311.094 111.07 535.918
310.859 111.87 535.908
310.998 112.85 535.784
310.989 114.032 535.918
311.126 114.954 535.744
311.156 116.003 535.997
311.065 117.019 534.27
310.904 117.912 534.31
310.976 119.004 534.109
310.921 120.036 534.472
311.153 121.152 534.176
310.812 121.927 534.394
311.062 122.905 534.348
311.019 124.004 532.545
310.955 125.001 532.627
310.86 125.818 532.799
311.186 126.845 532.647
311.058 127.823 532.622
310.899 129.042 532.731
311.009 129.943 532.572
311.026 131.123 532.825
310.902 131.975 532.582
311.053 132.955 532.79
310.884 134.07 531.145
311.154 135.044 531.212
311.033 136.197 531.263
311.007 136.914 531.062
311.165 137.959 531.134
310.919 138.946 531.186
311.113 139.966 530.859
311 140.874 531.179
310.963 142.014 531.273
310.991 143.124 531.23
311.077 143.933 531.16
311.049 145.065 531.111
311.077 146.092 531.249
311.007 147.101 531.046
311.01 147.997 531.099
311.079 149.06 531.079
311.234 149.935 531.197
311.151 151.071 530.997
310.985 152.003 531.24
310.955 153.01 531.147
310.905 153.989 531.12
310.951 154.931 531.14
311.004 156.093 531.307
310.856 156.87 531.077
311.017 157.983 531.171
310.958 158.922 531.124
310.994 159.712 530.88
311.123 161.011 531.187
310.995 161.818 531.172
310.873 163.171 531.001
311.092 164.035 531.214
311.009 165.144 530.933
311.135 165.9 531.082
310.91 166.997 531.038
311.015 168.086 532.729
310.842 168.948 532.538
310.888 170.103 532.553
311.129 171.02 532.732
310.943 171.908 532.744
310.892 173.007 532.737
310.818 173.985 532.674
311 175.095 534.348
310.998 176.022 534.154
311.079 176.846 534.359
310.975 177.966 534.146
310.894 179.025 534.492
311.171 180.087 535.873
311.068 181.056 535.935
311.058 182.104 535.831
310.79 182.724 537.57
311.02 184.039 537.508
311.138 184.803 537.484
311.103 185.961 539.137
310.967 187.091 539.048
311.026 187.965 539.059
311.023 188.836 540.751
311.021 190.09 540.818
310.955 190.949 542.35
310.959 192.184 542.442
311.096 193.108 543.958
310.926 194.031 545.652
310.958 195.073 545.653
311.115 196.069 547.319
310.988 196.836 548.753
310.909 198.14 548.959
310.791 198.991 545.675
311.142 199.98 545.614
311.08 201.226 542.394
311.078 202.022 542.569
310.966 203.129 540.746
310.956 204.076 539.038
310.911 204.937 538.954
311.098 206.127 537.386
311.043 207.005 537.42
311.12 207.746 535.857
311.068 208.982 535.954
311.065 210.075 536.007
310.965 210.919 534.166
311.02 211.925 534.234
310.969 212.88 532.854
310.945 213.885 532.665
310.963 215.135 532.77
311.096 215.971 532.538
310.943 216.829 531.128
310.827 218.006 531.244
311.167 218.95 531.148
310.901 220.048 531.088
310.937 220.923 531.183
310.921 221.979 529.616
310.801 222.952 529.599
311.058 223.942 529.506
311.123 225.04 529.532
311.07 225.952 529.624
311.031 226.887 528.168
311.129 227.925 528.089
310.914 229.094 528.066
310.866 230.005 528.076
311.165 231.051 527.944
310.828 231.829 528.002
310.995 232.933 526.457
310.88 233.969 526.498
310.995 234.891 526.521
311.101 235.856 526.546
311.202 237.092 526.412
311.085 237.874 526.578
311.002 238.997 526.486
311.09 240.013 526.487
310.829 240.867 526.684
311.034 242.087 526.444
311.078 243.047 526.708
310.882 243.943 526.504
310.991 244.85 526.228
310.939 246.138 526.543
310.803 246.924 526.521
311.146 248.05 526.293
311.051 248.863 526.455
310.962 249.993 526.444
311.214 251.099 526.505
310.657 251.906 526.378
310.962 252.902 526.303
311.036 254.012 526.5
310.895 255.034 526.404
311.132 255.934 526.425
311.116 257.074 526.506
310.959 258.046 526.286
310.977 259.162 526.374
311.047 260.117 526.535
311.035 260.888 526.479
310.866 262.01 526.542
310.869 263.029 526.617
311.035 264.038 526.181
311.095 264.974 526.517
312.014 0.0603635 726.843
312.101 0.922379 726.743
312.112 1.90341 726.761
312.171 3.10547 726.781
311.964 3.98573 726.85
311.692 4.89942 726.739
311.956 6.14286 726.86
311.798 6.97522 726.883
311.993 8.05223 723.797
311.896 9.02753 723.729
311.982 9.88773 723.9
312.039 10.982 726.952
311.975 11.8569 726.903
312.014 13.1897 726.828
311.9 14.1744 726.879
312.036 15.1195 723.831
311.906 16.0248 726.918
312.113 16.9692 726.982
311.818 17.9809 726.782
311.985 18.9925 726.736
312.072 20.0755 726.779
312.069 21.1139 726.651
312.078 22.0306 726.913
312.005 23.0707 726.908
312.025 24.1257 726.834
311.923 25.0403 726.642
312.111 25.8903 726.896
311.916 28.8073 569.805
311.892 29.9592 570.002
311.885 30.9811 569.971
312.115 31.9463 569.862
311.968 32.9357 569.851
311.955 34.2608 568.179
311.947 35.0001 568.036
312.102 36.0053 568.082
311.907 36.9343 568.106
311.926 37.841 568.05
312.143 39.0464 568.138
311.879 39.8928 568.164
311.98 40.9151 567.907
312.035 41.9415 568.205
311.929 43.0993 568.152
311.963 44.1552 568.162
311.989 44.9457 568.124
312.159 45.9321 566.281
311.951 47.1528 566.591
312.003 48.0633 566.3
311.838 48.871 564.517
312.073 50.2004 562.684
312.097 51.0657 562.687
311.858 51.9016 560.981
311.84 53.0188 560.922
311.882 53.9552 561.039
312.014 54.8941 559.289
311.984 56.1599 557.601
311.858 56.8553 557.611
311.908 57.945 555.743
312.016 59.0869 555.745
311.858 60.0181 554.082
311.953 60.9875 554.042
312.022 62.2129 552.246
312.048 63.0063 552.369
312.062 64.1889 550.524
311.878 64.9563 550.56
312.078 65.958 548.956
311.969 66.9432 549.184
311.954 68.158 547.315
311.795 69.0128 547.372
311.929 70.0341 547.261
312.054 70.9654 545.752
311.97 71.7849 545.594
311.938 72.8832 545.603
311.986 73.9404 545.639
311.852 74.9263 545.553
312.078 75.7876 545.556
311.975 76.9941 545.638
312.062 78.0748 543.89
311.931 79.0021 543.995
311.994 79.9848 543.877
311.986 80.9189 544.009
311.998 81.8741 543.87
312.095 82.9755 542.34
311.971 83.9089 542.399
312.005 84.9431 542.26
312.166 85.962 542.495
312.078 86.9658 542.388
311.948 88.0196 542.439
312.034 89.2144 542.3
312.176 90.0219 540.792
312.211 90.9919 540.78
311.944 92.0776 540.741
312.173 92.9978 540.839
312.145 94.0763 540.772
311.988 94.8617 539.065
312.027 95.878 539.092
312.092 97.0508 539.171
311.754 97.9468 539.165
312.079 98.8272 539.011
312.144 100.212 539.07
311.905 100.881 539.087
312.069 101.871 537.686
311.95 103.064 537.433
312.001 103.98 537.526
312.093 104.835 537.615
311.909 106.034 537.547
312.065 106.921 537.277
312.076 107.974 535.726
312.108 108.898 535.981
312.03 109.841 535.859
312.068 110.986 535.678
311.972 111.949 535.799
311.845 113.085 535.942
311.939 113.72 535.911
312.093 114.98 534.233
311.997 116.071 534.214
312.09 117.018 534.335
312.098 118.014 534.314
311.905 119.157 534.217
312.039 120.062 534.421
312.02 121.093 534.262
312.06 122.139 532.703
312.061 123.047 532.673
312.018 124.06 532.695
312.122 125.007 532.584
312.111 126.018 532.739
311.796 127.026 532.825
312.004 127.94 532.711
311.979 128.942 532.766
312.17 130.013 532.774
312.087 130.924 532.585
312.02 132.003 532.595
312.092 133.105 531.314
312.217 134.068 531.068
312.001 134.97 531.099
312.14 135.848 531.106
311.935 137.084 531.279
312.058 137.885 531.063
311.949 139.046 531.225
312.001 140.054 531.011
311.937 141.223 531.186
311.82 141.794 531.32
312.052 142.934 530.974
311.995 144.085 531.169
312.047 145.181 531.21
311.937 145.991 531.261
311.947 147.116 531.036
312.005 148.049 531.12
311.817 148.878 530.937
311.911 150.026 531.22
311.916 150.913 531.217
311.94 151.963 529.526
312.107 153.091 531.126
311.858 154.007 531.15
311.968 154.826 531.061
312.063 155.925 531.086
312.17 157.054 531.023
311.921 158.137 531.174
312.139 159.023 530.864
311.956 160.067 531.121
312.154 160.945 530.996
312.054 161.981 531.157
311.901 162.946 531.128
312.125 164.069 531.183
312.039 165.088 531.31
312.162 165.887 531.187
311.947 166.887 531.155
312.045 167.971 531.234
311.86 168.914 531.093
312.027 170.127 532.622
312 171.049 532.892
312.051 172.093 532.605
311.886 172.962 532.653
311.906 174.064 532.665
311.918 175.002 532.74
311.838 176.029 534.27
312.074 177.011 534.263
311.941 177.926 534.208
311.783 179.035 534.107
312.058 180.101 534.293
311.941 181.006 535.798
311.963 182.03 535.863
312.172 183.045 535.763
312.019 184.087 537.391
311.974 185.181 537.38
311.819 185.9 537.572
311.904 187.103 538.968
312.192 188.119 539.085
312.139 189.015 538.932
311.924 190.022 540.553
311.816 190.889 540.774
311.839 191.855 542.384
311.967 192.885 543.969
311.979 194.065 543.94
311.915 194.975 545.725
311.891 195.854 547.389
312.122 196.963 547.301
312.248 197.981 547.303
311.966 199.135 545.598
311.969 200.074 543.872
311.959 201.08 542.069
311.855 202.066 540.597
311.988 203.102 539.114
311.992 203.791 539.171
312.026 205.014 537.416
312.049 205.949 537.271
311.964 207.021 535.951
311.931 208.053 535.823
311.981 209.074 535.924
311.971 210.187 534.367
311.943 210.895 534.188
311.854 211.777 534.404
312.084 212.839 532.74
312.084 214.029 532.739
311.925 215.11 532.636
312.058 215.932 531.019
312.094 217.112 531.114
311.903 218.043 531.144
311.988 218.963 529.643
312.073 219.988 529.49
312.025 221.045 529.72
311.928 221.908 529.335
312.065 223.207 529.725
311.882 224.011 529.74
311.901 225.043 527.994
312.086 226.073 527.988
311.868 226.914 528.08
312.015 227.865 527.943
311.966 229.109 527.908
312.063 229.954 527.956
312.024 230.81 528.032
312.232 231.933 526.745
312.045 232.91 526.553
312.047 233.915 526.628
312.011 234.983 526.369
312.249 236.118 526.457
312.112 237.145 526.444
312.022 238.12 526.59
311.893 239.031 526.547
311.947 239.954 526.357
311.77 241.148 526.535
311.928 241.951 526.606
312.119 242.937 524.982
311.9 244.192 524.791
312.083 244.916 524.921
312.09 246.17 525.045
312.066 247.117 524.897
312.055 247.943 524.793
312.135 248.995 524.792
312.141 250.319 525.006
312 251.069 524.888
311.975 251.939 524.785
311.867 252.881 524.905
312.078 254.185 524.844
312.051 254.933 524.901
312.014 256.167 524.814
312.258 257.051 524.8
311.977 257.911 524.91
312.105 259.028 526.438
312.119 260.169 524.939
311.92 261.034 524.817
312.036 262.102 524.675
312.056 262.974 524.901
312.086 263.937 524.927
312.075 264.931 524.887
313.055 0.0240443 726.819
313.001 0.806804 726.763
313.04 2.01726 726.791
313.051 3.13768 726.627
312.904 3.90521 726.863
312.979 4.8564 726.814
313.127 6.14593 726.834
313.137 7.04371 726.803
312.917 8.14823 726.807
313.106 9.08105 723.805
312.769 9.92718 723.926
312.974 11.0775 726.845
313.164 11.8081 726.776
313.08 13.0597 726.837
313.153 14.0603 726.798
313.018 15.11 723.901
313.057 15.953 726.609
313.058 17.105 726.653
313.105 17.7714 726.853
313.001 19.0058 726.785
312.993 20.1449 726.932
312.998 20.9633 726.89
312.913 22.061 726.904
312.782 23.0974 726.698
312.931 24.1702 726.971
313.111 25.123 726.882
312.947 26.0648 726.678
312.912 27.0759 726.782
312.925 28.8777 569.928
313.052 30.0238 569.98
313.059 31.2066 569.774
313.084 31.9927 568.013
313.018 32.9012 568.121
312.921 33.9965 568.029
313.035 34.8641 568.089
313.08 35.9539 568.083
312.935 36.9276 568.075
312.929 38.0715 568.076
313.023 39.0089 568.086
313.03 40.0196 567.967
312.982 41.2391 568.141
312.899 42.0371 568.087
313.031 42.7956 568.209
312.992 43.7987 568.056
313.083 44.8775 568
313.106 46.2294 566.241
313.143 47.053 566.295
312.868 47.9603 564.621
313.118 48.9483 564.43
313.066 49.8595 562.771
312.957 51.058 562.812
312.951 51.9642 562.946
313.08 53.0754 561.069
313.072 53.9308 560.988
313.044 54.8789 559.209
312.943 55.9178 557.474
313.073 57.1698 557.521
313.071 58.024 555.778
312.905 59.0722 554.109
313.064 59.9033 554.074
312.987 61.1088 554.002
312.986 61.9121 552.458
312.871 63.0297 552.346
313.197 64.0636 550.796
313.033 65.1851 550.631
312.814 66.0905 549.013
312.752 66.9358 548.916
312.982 67.9384 547.416
312.981 68.8849 547.423
313.016 70.092 545.56
312.891 70.9411 545.588
312.946 71.9319 545.684
312.873 72.9794 545.504
312.992 74.094 545.693
312.994 75.0533 545.661
312.969 76.1565 544.11
313.068 77.0138 544.048
313.024 77.9708 544.093
313.058 78.763 543.883
313.075 79.6855 544.148
313.055 81.0161 544.221
313.214 82.1088 542.375
313.012 82.9809 542.415
313.081 83.9085 542.569
313.205 85.0575 542.381
312.933 86.0573 542.325
312.919 87.1107 540.658
313.029 87.7935 540.837
312.97 89.0248 540.648
313.188 89.9437 540.812
313.089 91.1365 540.756
312.895 91.9687 540.651
313.036 93.2578 540.706
312.864 94.0343 539.093
312.926 95.0639 539.05
313.063 96.0579 539.254
313.021 97.1265 539.049
312.99 97.7719 539.045
313.078 99.0139 539.169
312.904 99.9466 537.422
313.081 101.023 537.543
313.111 102.046 537.496
312.974 102.847 537.529
312.859 103.969 537.517
313.085 104.974 537.389
313.067 106.078 535.649
312.893 107.18 535.755
312.893 108.163 535.855
313.024 109.086 536.056
313.063 109.927 535.759
313.059 111.081 535.849
312.745 111.787 535.782
312.808 113.157 534.187
313.059 113.971 534.266
313.138 115.08 534.223
312.89 115.869 534.318
312.964 116.822 534.272
313.109 118.074 534.42
313.036 118.836 534.294
313.08 119.816 534.228
313.1 121.106 532.65
312.883 122.09 532.593
313.026 123.098 532.632
312.881 123.944 532.717
312.901 125.222 532.738
312.985 126.117 532.622
313.105 127.249 532.72
312.979 128.016 532.686
313.053 129.211 531.293
312.962 129.979 530.994
312.988 131.038 531.135
312.877 131.827 531.256
312.78 133.037 531.266
312.986 134.005 531.139
312.821 134.974 531.212
312.945 135.954 531.173
312.982 136.915 531.255
312.813 138.051 531.086
312.949 139.026 531.272
313.096 140.022 531.016
313.002 140.991 529.536
312.998 141.967 529.58
312.804 143.026 529.589
313.119 143.89 529.513
312.849 145.05 529.568
313.032 145.999 529.599
312.96 146.933 529.598
312.954 147.984 529.441
313.037 148.956 529.492
312.88 150.001 529.494
313.128 151.005 529.695
312.92 152.059 529.748
313.091 152.934 529.505
313.036 154.116 529.677
312.941 154.993 529.597
312.975 155.721 529.502
313.034 156.835 529.576
312.966 158.113 529.496
312.931 159.006 529.475
313.046 160.031 529.517
312.94 161.07 530.962
313.1 162.016 531.095
313.03 162.982 530.986
313.073 163.961 531.121
312.927 164.972 531.151
313.084 165.993 531.301
313.174 166.944 531.135
313.216 168.057 531.237
313.116 168.975 531.323
313.109 169.965 531.238
312.842 171.033 531.026
313.008 171.981 532.804
312.996 172.912 532.663
313.018 174.119 532.727
312.954 175.062 532.605
312.913 175.823 532.569
313.055 176.898 532.645
313.145 178.04 534.296
313.075 179.02 534.511
312.951 180.179 534.412
312.745 181.021 535.963
312.891 181.883 535.921
313.017 183.106 535.978
312.941 184.097 535.827
312.907 184.941 537.451
313.024 186.071 537.45
312.955 186.962 539.002
313.172 187.916 539.107
312.981 189.023 539.212
312.995 190.051 540.788
312.894 191.012 540.675
312.849 191.899 542.224
312.9 192.996 544.034
312.898 194.012 544.042
313.009 195.011 545.661
312.924 195.993 547.329
313.18 197.099 547.329
313.043 197.895 547.34
312.876 199.015 545.608
313.169 199.952 543.988
313.196 201.027 542.197
313.118 201.885 540.771
313.166 203.03 540.648
313.207 203.882 539.028
312.861 204.908 537.423
312.994 206.023 536.017
312.912 207.021 535.792
313.071 207.999 536.036
313.053 208.969 534.344
312.949 209.945 534.305
313.187 210.904 534.096
312.963 212.007 532.644
313.006 212.912 532.444
312.96 213.8 532.552
312.827 215.146 531.247
312.931 215.876 531.192
312.926 217.006 530.996
312.931 217.988 530.988
313.003 219.064 529.462
313.037 220.116 529.429
312.987 220.957 529.533
312.979 222.116 529.653
312.966 223.126 529.622
313.012 223.996 528.126
313.125 225.134 528.036
312.958 226.032 528.119
313.155 227.003 528.06
312.856 228.046 528.058
312.969 229.016 526.591
312.914 229.791 526.547
313.004 231.05 526.662
312.95 231.922 526.38
313.045 232.938 526.396
313.093 233.891 526.481
313.244 235.184 526.458
313.1 235.95 526.434
312.972 236.876 526.404
312.952 238.142 526.399
313.077 238.859 524.923
313.031 239.917 526.401
312.946 241.012 524.917
312.976 241.985 524.809
312.848 243.019 524.915
313.057 244.009 524.768
312.94 244.995 525.002
312.975 245.923 525.085
313.094 246.931 524.934
312.888 248.046 525.185
313.136 249.094 524.838
313.109 250.043 524.991
312.976 250.926 524.83
313.055 252.01 524.916
313.114 252.987 524.754
312.937 253.841 524.689
313.149 255.038 524.804
312.924 256.169 525.092
312.925 256.926 525.021
313.066 257.95 524.875
312.896 258.913 524.801
312.965 260.083 524.9
312.817 260.91 524.85
312.904 262.003 525.06
313.008 263.018 525.091
313.068 264.045 525.003
313.057 264.885 524.949
313.823 -0.0272873 726.874
313.995 0.984227 726.959
313.98 2.0426 726.96
314.049 3.10869 726.845
313.723 3.92836 726.777
313.975 4.91714 726.972
314.127 5.84278 726.864
313.852 6.87045 726.812
314.272 7.85095 726.984
313.917 8.88384 723.849
314.031 10.0338 723.927
314.018 11.0405 726.755
314.035 11.9 726.884
314.015 13.261 726.722
314.023 13.8939 723.929
313.935 14.9917 723.979
314.095 16.1419 726.755
313.881 17.0992 726.713
314.003 18.0637 726.89
314.087 18.816 726.722
314.167 20.0064 726.739
314.158 20.9101 726.834
314.058 21.8744 726.807
313.836 23.1428 726.871
313.921 23.9134 726.808
313.994 25.0274 726.793
314.001 26.0059 726.777
313.918 26.9607 726.968
314.197 29.1187 569.868
313.913 30.0669 569.738
314.007 30.9868 568.145
313.991 31.8982 567.986
313.931 32.943 568.318
314.036 34.0564 568.089
314.076 34.9621 568.005
314.045 35.8852 568.052
314.178 37.0061 567.966
314.237 37.8252 568.275
313.947 38.9937 568.332
313.946 40.0858 568.1
314.129 40.9119 568.075
314.114 41.98 568.148
314.013 42.9723 566.243
313.913 43.9728 568.053
314.146 45.1282 566.704
313.81 46.0033 566.116
313.993 47.0022 564.658
314.086 47.8713 564.632
313.947 49.1771 562.793
314.136 50.1056 562.472
313.967 50.9452 562.505
313.913 51.8927 560.838
313.931 53.0536 560.943
314.033 54.007 559.239
314.106 54.8877 559.267
314.095 55.9163 557.672
313.815 57.0143 555.714
314.103 57.8924 555.783
314.127 59.0978 554.19
313.945 60.2505 553.883
313.836 61.0099 552.294
314.004 61.9977 552.459
314.067 62.9531 550.572
314.003 63.803 550.605
314 64.9437 549.035
314.091 65.9925 548.988
313.944 67.0617 547.275
314.049 67.8907 547.414
313.843 69.1445 545.679
314.107 69.9098 545.603
313.897 70.8749 545.649
314.048 72.0022 545.615
313.984 72.9782 545.72
314.165 73.8118 543.834
313.956 75.0171 544.036
314.028 75.9575 543.916
313.965 77.0905 543.947
314.158 77.9274 543.788
313.992 78.9192 543.911
313.962 80.1367 542.469
313.981 81.0721 542.309
314.066 82.0326 542.315
313.972 83.0258 542.427
314.089 84.0877 542.52
313.971 84.9862 542.36
314.219 86.0487 540.851
313.938 86.7551 540.488
313.998 88.1454 540.768
314.087 88.8246 540.725
314.147 90.2282 540.876
314.21 90.944 540.79
313.943 92.1041 538.991
313.86 93.0237 538.918
313.901 94.1266 539.1
313.941 94.91 539.033
314.013 96.0334 539.259
314.033 96.7968 538.981
313.963 98.0078 539.102
313.994 98.996 537.397
314.125 99.9419 537.501
313.975 101.065 537.461
313.86 102.043 537.556
314.051 103.041 537.39
313.87 104.079 537.386
313.944 105.252 535.857
313.975 106.125 535.922
314.052 106.992 535.847
314.091 108.158 535.897
313.921 109.018 536.02
314.072 109.97 535.672
314.016 111.1 534.343
314.001 111.832 534.301
313.837 112.869 534.406
313.924 114.117 534.217
314.037 114.89 534.345
313.988 116.051 534.117
314.156 117.004 534.176
313.966 117.973 532.526
314.057 118.981 532.641
314.018 119.982 532.585
314.045 120.906 532.586
313.974 122.004 532.827
313.877 123.065 532.821
314.046 123.889 532.883
313.89 124.927 532.63
314.076 126.004 531.172
313.972 127.14 531.112
313.964 127.939 531.137
314.11 128.925 531.075
313.939 129.891 530.962
313.959 131.002 531.03
314.054 132.038 531.144
314.036 132.906 531.142
314.132 133.948 531.174
314.059 134.952 531.156
314.071 136.158 531.101
313.937 137.033 529.502
314.217 138.12 529.668
314.115 139.195 529.569
313.998 139.843 529.599
314.216 141.075 529.582
313.988 141.924 529.534
314.144 143.02 529.452
313.959 143.95 529.504
314.084 145.038 529.534
313.928 145.972 529.62
314.052 146.974 529.481
314.009 147.984 529.716
313.913 149.06 529.477
314.034 150.118 529.429
314.044 150.899 529.463
314.031 152.051 529.691
314.191 153.115 529.492
314.023 154.034 529.469
313.961 155.01 529.525
314.008 155.898 529.581
314.046 156.978 529.614
314.153 157.983 529.663
314.059 159.024 529.47
313.942 160.028 529.561
313.952 160.95 529.599
313.916 162.055 529.519
314.015 162.926 529.568
313.983 163.901 531.142
314.117 164.998 531.158
313.923 165.935 531.198
313.89 167.074 531.138
313.97 167.984 531.155
314.038 169.189 531.09
313.98 170.019 531.029
313.942 170.794 531.149
314.105 171.968 530.998
313.939 173.055 532.67
314.079 173.927 532.792
313.884 174.9 532.533
314.005 176.044 532.701
314.074 176.977 532.701
314.088 178.07 534.322
313.987 178.977 534.305
314.008 180.2 534.185
314.064 180.949 534.368
314.107 182.093 535.616
314.071 183.143 535.794
314.048 184.026 535.8
313.904 185.063 537.272
313.997 185.755 537.44
313.807 187.082 537.408
314.031 187.855 539.213
313.964 189.128 539.121
313.833 190.051 540.727
314.035 191.003 540.679
313.973 191.988 542.27
314.108 192.997 542.455
313.945 193.87 544.054
313.932 195.137 545.715
314.104 196.133 545.658
314.025 196.947 547.224
313.978 198.014 547.257
313.938 199.11 545.682
314.195 200.035 542.381
314.035 200.991 540.644
314.013 201.959 540.648
314.083 203.101 539.149
313.886 203.865 537.56
314.02 205.3 537.429
313.973 205.783 535.808
314.056 207.025 535.833
314.061 207.76 536.228
314.096 208.882 534.303
314.04 210.028 534.145
313.982 211.06 532.879
314.014 212.114 532.637
314.016 213.042 532.593
314.125 213.92 531.085
313.919 215.051 531.038
313.993 215.991 531.035
314.029 216.956 531.184
314.086 217.859 529.57
314.154 218.774 529.694
313.945 220.01 529.437
313.911 221.046 529.469
313.985 221.929 529.561
313.948 223.039 528.07
314.011 224.11 527.935
314.322 225.041 527.986
314.031 226.007 528.017
313.894 227.07 527.952
313.91 228.058 526.485
314.142 228.958 526.527
313.879 229.855 526.428
314.071 231.13 526.611
314.172 231.878 526.561
313.816 233.077 526.457
314.191 233.976 526.574
314.056 234.899 526.692
313.924 236.352 524.992
314.168 237.269 524.775
314.112 237.955 524.895
313.995 238.958 524.89
314.078 239.913 524.948
314.132 241.009 524.933
314.152 241.938 524.887
314.095 243.119 524.904
314.002 244.021 524.842
313.969 245.032 524.878
314.089 245.856 524.874
314.186 246.94 524.786
313.969 247.879 525.004
314.014 249.13 525.091
313.945 249.893 525.021
314.021 251.11 525.007
314.249 252.068 524.711
314.04 252.814 524.89
314.103 254.027 524.938
313.944 255.148 524.93
313.929 255.979 524.931
314.067 256.914 524.975
314.097 257.958 525.011
313.981 259.077 524.862
314.014 259.851 525.058
314.04 261.088 524.8
314.035 261.997 524.868
313.865 263.043 525.208
313.889 263.905 524.836
314.194 264.985 525.025
315.102 0.145814 570.13
314.947 1.04189 726.633
315.011 2.1452 726.766
315.056 3.13635 726.729
314.923 4.07426 727.028
315.107 4.91421 726.845
314.847 6.15174 726.725
314.978 7.05257 726.825
314.978 7.80004 726.793
314.962 8.88282 723.651
315.049 10.0702 723.906
314.917 10.9685 726.875
314.991 12.2117 726.808
314.981 12.9246 726.848
315.034 13.9885 723.898
315.079 14.9615 723.891
315.14 16.1679 726.793
315.016 16.9447 726.849
314.939 17.9171 726.94
315.044 18.9839 726.81
315.105 19.9797 726.891
314.979 21.1604 726.712
314.935 21.9946 726.827
315.072 23.1174 726.601
315.041 24.0558 726.769
315.113 24.8063 726.787
314.93 25.9513 726.87
314.993 26.8073 726.912
315.007 29.0728 569.925
314.816 30.0024 569.89
315.034 31.239 568.118
315.026 31.8105 568.23
314.885 33.2223 568.134
314.954 33.7453 568.113
315.059 34.9647 568.157
314.834 36.0002 568.243
314.939 37.1061 568.014
315.11 38.0139 568.065
315.139 38.9764 568.09
315.072 40.0334 566.307
314.993 40.9639 566.143
315.02 41.8695 566.489
314.964 43.0145 566.276
315.12 43.9856 566.394
314.987 45.0401 566.218
314.929 45.8094 566.381
314.815 46.9771 564.509
315.133 47.7693 564.459
315.11 48.9468 562.944
315.176 50.1508 562.744
315.012 51.1261 561.047
315.176 51.9643 559.315
314.989 53.1714 559.039
315.051 54.0395 559.278
315.052 55.1183 557.44
315.203 56.0015 557.413
314.921 57.0578 555.968
315.049 58.0236 555.911
315.07 59.093 554.082
315.189 59.917 554.065
314.953 60.9063 552.478
314.872 61.9834 550.519
314.979 62.9464 550.641
314.99 63.9133 550.92
315.141 64.8768 549.003
315.04 65.9333 549.072
315.054 67.1078 547.452
315.036 67.9905 545.761
315.133 68.9626 545.821
314.899 70.0023 545.487
314.855 70.8376 545.875
314.923 71.9398 545.5
315.047 72.9363 543.952
315.02 74.0978 543.994
315.186 74.9564 544.202
315.115 75.954 544.001
315.074 76.9518 543.889
314.959 77.99 543.938
315.03 78.9651 542.32
315.041 79.9337 542.159
314.881 80.9812 542.309
314.87 82.0264 542.38
315.081 83.0543 542.293
314.917 84.0426 542.354
314.985 84.9597 542.231
314.976 86.0805 540.645
314.962 87.0557 540.709
315.109 88.1566 540.753
314.905 89.0053 540.581
315.028 90.0031 540.883
314.919 90.9976 539.275
314.873 92.021 539.237
314.88 93.0577 538.965
314.942 94.0281 539.116
315.239 95.0296 539.246
314.95 95.8956 539.189
315.022 97.0572 537.494
314.986 98.1772 537.293
314.954 98.9113 537.41
314.935 100.11 537.599
314.95 100.761 537.436
315.104 102.058 537.513
314.968 102.964 537.4
315.026 104.17 535.962
315.009 104.852 535.859
314.978 105.998 535.944
314.964 107.01 535.822
314.906 107.878 535.828
315.02 109.125 535.923
315.062 109.928 534.301
314.907 110.989 534.274
315.071 112.106 534.26
314.996 112.996 534.298
314.903 113.938 534.394
314.873 114.999 534.361
315.072 116.073 534.252
314.986 117.036 534.301
314.993 118.131 532.72
314.89 118.929 532.719
314.899 119.993 532.751
314.964 120.894 532.713
315.097 121.942 532.754
315.024 123.111 532.716
315.133 124.123 531.172
314.841 125.007 531.156
315.017 126.1 531.192
314.921 126.985 531.117
315.019 127.956 531.242
314.919 129.142 530.947
315.157 129.961 531.106
315.086 131.119 531.14
315.021 132.02 531.179
315.065 133.083 530.985
315.01 134.014 529.512
315.219 134.985 529.504
314.855 135.925 529.509
315.014 136.82 529.598
314.999 138.029 529.481
314.968 138.921 529.689
314.959 139.875 529.608
315.159 140.961 529.79
314.969 142.037 529.396
315.199 143.01 529.47
314.944 144.191 529.642
315.222 144.937 529.456
314.943 145.919 529.577
314.971 147.087 529.521
315.042 148.209 529.53
314.907 148.944 529.7
314.822 149.923 529.787
314.966 150.946 529.583
315.078 152.022 529.653
315.081 152.858 529.588
314.833 153.841 529.626
315.053 154.892 529.444
314.953 155.914 529.495
314.744 157.021 529.58
314.994 158.11 529.544
315.102 158.902 529.553
314.741 160.025 529.54
314.896 161.017 529.75
314.975 162.076 529.504
314.835 162.912 529.505
314.939 163.86 529.554
315.052 164.979 529.549
314.839 166.039 529.51
315.078 166.987 530.988
315.11 167.896 530.917
315.027 168.919 531.211
314.965 170.058 531.155
314.85 170.738 531.06
315.017 171.948 531.129
314.803 173.022 531.181
315.192 174.088 531.093
315 174.944 532.794
315.022 176.093 532.723
315.004 176.973 532.72
315.013 177.88 532.731
315.044 179.05 534.14
314.976 180.012 534.164
315.057 181.085 534.177
314.936 182.076 534.271
315.174 183.184 535.834
314.935 184.193 535.871
314.902 184.956 535.909
315.058 186.055 537.476
315.146 186.825 537.666
314.991 188.029 539.096
315.033 188.956 539.112
314.899 190.024 539.051
314.831 191.117 540.62
314.847 191.93 542.384
315.11 193.143 542.261
314.898 194.12 544.07
315.043 195.083 545.645
314.89 195.857 545.541
314.916 197.073 547.131
315.125 198.111 547.35
314.941 198.963 544.049
314.987 199.892 542.274
315.076 201.094 540.55
314.901 202.109 539.23
315.035 203.122 539.015
315.094 204.001 537.53
315.02 205.136 537.393
315.06 206.049 535.797
315.039 206.824 535.897
314.91 207.945 534.317
314.847 209.202 534.31
314.926 209.988 532.698
315.046 211.149 532.791
314.913 211.867 532.613
314.903 213.036 531.068
314.939 213.921 531.058
314.829 215.068 531.085
315.04 216.048 531.144
315.166 216.695 531.139
315.027 217.999 529.529
314.821 219.068 529.446
314.925 220.212 529.464
315.028 221.054 527.968
315.346 222.114 527.992
314.995 222.974 528.041
315.043 223.809 527.973
314.949 225.05 527.997
314.957 226.105 526.458
315.209 227.002 526.278
315.137 227.753 526.571
314.913 228.985 526.533
315.143 230.011 526.417
314.952 231.03 526.378
315.054 231.805 526.494
314.978 233.093 526.542
315.006 234.059 525.108
314.985 234.877 524.942
315.056 235.883 524.902
314.834 236.921 525.102
314.933 238.08 524.823
315.109 239.184 525.001
314.851 240.052 524.989
315.018 241.019 524.922
315.082 241.997 524.923
315.113 243.022 524.938
314.879 244.078 524.899
315.058 245.264 524.915
315.008 246.02 524.881
314.958 246.997 524.919
315.179 247.892 524.948
314.899 248.833 524.981
314.907 249.816 524.868
314.975 251.037 524.864
315.044 252.007 524.95
314.935 252.964 524.885
315.026 254.114 525.083
315.203 255.103 524.976
315.134 255.988 524.655
314.966 257.044 524.735
314.909 258.024 524.864
315.03 259.03 524.742
315.035 260.003 524.94
314.872 261.103 525.176
314.899 262.04 524.839
315.335 263.138 525.018
314.885 263.975 524.843
314.796 265.02 524.933
316.038 -0.120887 569.628
316.004 0.876571 726.894
316.117 1.87091 726.629
315.824 2.96262 726.826
315.963 3.94272 726.579
316.071 4.85846 726.84
316.009 6.05114 726.889
316.017 7.05096 726.902
315.946 8.03737 726.834
316.047 8.86713 723.922
315.947 9.86788 723.805
316.126 11.0918 726.788
316.071 11.9023 726.74
315.985 12.9758 726.833
315.993 13.8764 723.959
316.062 14.8786 723.669
316.011 15.9847 723.986
315.944 17.0152 726.743
316.195 17.8883 726.718
316.078 19.0527 726.889
315.979 20.1499 726.914
316.02 21.0253 726.913
316.06 21.8615 726.891
316.037 22.8547 726.876
316.019 24.1362 726.676
315.914 24.9521 726.979
316.018 26.0866 726.912
316.084 26.9246 726.923
316.136 28.0132 568.233
316.029 29.0266 568.088
316.026 29.9654 567.966
316.006 30.7956 568.248
315.891 31.9875 568.009
315.966 32.9456 568.069
315.929 34.1627 568.15
316.007 34.8101 568.153
315.942 36.0428 568.077
316.047 36.9189 568.219
315.94 37.9783 568.07
315.802 39.0305 566.348
316.155 39.9732 566.325
315.959 40.9773 566.408
315.984 41.911 566.288
315.957 42.9274 566.339
316.032 44.0121 566.404
316.062 44.9553 566.443
315.817 45.9606 564.584
315.97 46.8623 564.552
315.934 48.0394 562.84
315.991 49.0231 562.709
315.851 49.9939 562.851
316.011 51.064 561.017
316.175 51.9703 559.097
315.978 53.0907 559.236
315.985 53.9009 557.46
316.014 54.9122 557.62
315.931 56.0621 557.501
316.131 57.0869 555.752
315.97 57.9244 554.051
315.999 59.1201 554.199
316.157 59.9631 552.454
315.991 60.8562 552.479
316.036 61.8861 550.741
315.984 62.9832 548.938
316.034 64.1264 549.003
315.97 65.0241 548.894
316.041 65.9609 547.292
315.917 66.9902 547.397
315.995 67.8944 545.643
315.927 68.9926 545.598
315.895 69.9563 545.63
315.924 70.9139 545.561
315.881 71.9365 543.979
315.977 73.0841 544.024
316.117 74.1682 543.954
316.112 74.9546 544.072
315.887 76.1083 543.987
316.168 76.8915 544.113
315.978 77.8273 542.236
316.001 79.1119 542.374
316.033 80.0273 542.331
316.091 81.1053 542.132
316.024 82.1048 542.309
315.905 83.1772 540.696
316.156 84.1066 540.706
315.952 85.0501 540.627
316.105 85.8786 540.684
316.051 86.9057 540.734
316.21 87.9572 540.872
315.929 88.8843 539.165
315.972 89.926 539.081
315.944 91.0412 539.068
315.979 91.7859 539.068
316.08 92.9492 539.092
315.986 94.0796 538.983
315.858 94.9346 537.334
316.186 95.9438 537.406
315.932 96.9135 537.457
316.034 98.0207 537.376
315.842 98.9663 537.535
316.187 100.045 537.504
316.007 101.013 537.463
315.955 101.787 535.762
316.067 102.862 535.905
316.033 103.968 536.009
315.919 105.059 535.897
316.045 106.08 535.838
315.897 106.945 535.881
316.024 108.114 534.517
316.128 108.961 534.361
315.987 110 534.093
315.968 110.874 534.235
315.9 112.204 534.302
315.996 113.071 534.294
315.976 113.982 532.672
315.843 115.042 532.503
315.985 115.949 532.768
316.039 117.175 532.716
316.009 118.04 532.791
315.824 118.959 532.79
315.954 120.02 532.687
316.142 120.842 532.797
315.871 122.099 531.162
315.945 122.971 531.286
316.067 124.199 531.167
315.862 124.968 531.057
316.003 126.071 531.177
316.106 126.968 531.063
315.959 128.151 531.13
315.847 128.847 531.129
315.994 129.986 531.067
315.894 131.124 531.151
315.953 132.083 529.563
315.906 132.985 529.59
315.961 133.915 529.501
316.158 135.024 529.598
316.056 136.008 529.593
315.871 136.802 529.522
316.037 138.035 529.409
315.951 139.049 529.4
315.878 139.955 529.486
316.118 140.992 529.393
315.988 142.028 529.576
316.143 142.859 529.514
316.249 143.922 529.71
315.873 145.129 529.638
315.999 146.078 529.748
315.974 147.034 529.496
315.983 147.857 529.437
315.957 149.068 529.43
316.003 150.132 529.57
316.092 150.819 529.477
315.956 152.024 529.638
315.903 152.938 529.519
316.03 153.875 529.599
316.081 154.82 529.592
315.938 156.128 529.601
315.996 156.955 529.452
315.914 158.152 529.59
315.894 159.194 529.432
315.844 159.968 529.665
315.927 161.049 529.496
316.028 162.009 529.528
316.014 163.049 529.484
316.026 163.985 529.573
316.056 164.91 529.478
315.849 166.006 529.403
316.013 166.937 529.51
316.121 168.004 529.459
315.953 168.871 531.149
315.947 169.845 531.093
315.885 171.097 531.34
316.165 171.922 531.039
316.092 173.018 531.003
315.926 174.023 531.175
316.125 175.069 532.811
316.075 176.066 532.57
315.981 176.972 532.583
316.096 178.104 532.722
315.901 178.849 532.837
316.014 179.96 534.446
315.926 180.838 534.201
316.058 181.858 534.329
315.888 183.014 535.936
316.032 184.052 535.833
315.988 185.106 535.929
315.877 185.849 537.499
315.877 187.103 537.443
316.017 187.892 537.34
315.845 189.047 539.141
316.117 189.985 539.193
316.115 190.765 540.727
316.181 191.867 540.871
316.13 192.781 542.274
