217.947 120.882 627.651
217.933 122.035 627.523
218.06 122.926 625.54
217.993 124.091 625.551
217.919 125.004 625.596
217.855 126.087 625.471
217.881 127.01 625.48
218.141 127.754 625.488
218.091 128.876 625.708
217.958 130.101 625.471
218.043 131.183 625.546
218.062 132.109 625.615
217.929 132.944 625.578
217.923 133.943 623.37
217.981 135.06 623.414
218.291 136.057 623.281
218.01 136.863 623.324
218.112 137.889 623.24
218.085 138.995 623.247
218.005 139.944 623.327
217.94 141.073 623.485
218.127 141.894 623.438
218.037 142.851 623.338
217.955 143.853 623.312
218.004 144.976 623.262
218.134 146.176 623.221
218.196 147.075 623.262
218.043 147.922 623.382
217.968 148.958 621.319
217.896 150.057 621.401
217.993 151.077 620.978
217.929 151.836 621.257
218.006 153.171 621.189
217.892 153.996 621.348
218.025 154.995 621.224
217.972 155.95 621.089
218.104 157.052 621.039
218.035 157.947 621.133
217.961 159.011 621.09
217.848 159.865 621.108
218.01 160.976 621.281
218.007 162.131 619.016
217.809 163.14 618.885
217.898 223.871 665.148
217.982 225.081 667.517
217.914 225.968 667.169
217.938 227.304 667.382
218.028 227.918 664.986
217.802 229.136 664.85
218.084 229.927 667.366
218.035 230.885 667.329
217.953 231.967 667.442
218.094 233.032 667.41
217.968 233.958 667.342
218.105 235.09 667.418
218.151 235.934 667.529
218.009 237.112 667.487
217.962 237.948 667.276
217.924 238.996 667.394
217.901 240.207 667.326
218.136 240.956 523.426
218.124 241.994 521.865
218.195 243.114 517.071
217.965 243.887 512.964
217.951 245.033 511.474
217.938 246.095 509.974
218.083 246.996 508.584
217.981 247.891 507.12
217.826 248.862 507.296
217.923 250.117 505.572
218.072 250.979 505.873
218.069 251.966 505.558
217.902 253.17 505.814
218.058 253.92 505.783
217.848 255.084 505.671
218.033 256.168 507.267
218.063 257.039 507.06
217.922 258.063 508.462
217.91 258.892 508.638
218.072 259.995 508.596
217.992 260.899 510.031
217.966 261.852 510.051
218.058 263.029 511.436
217.91 263.849 512.908
217.92 264.971 512.923
218.173 266.157 514.26
217.935 267.135 515.766
218.003 268.098 517.503
217.873 268.916 517.32
217.986 270.076 518.906
218.058 270.97 520.439
219.201 0.096091 729.805
218.93 1.07525 729.788
219.095 1.96954 726.807
219.004 3.02227 726.688
218.977 3.97943 726.787
218.966 5.06682 726.844
218.934 5.94223 723.956
218.813 7.09618 723.839
219.156 8.03806 723.948
219.207 8.91499 723.799
219.08 10.1589 723.981
218.909 11.0108 720.972
218.989 12.2029 720.996
218.959 13.0024 720.951
219.077 14.0785 721.081
218.882 14.9674 720.807
219.018 16.0716 720.914
218.866 16.9053 720.837
219.099 18.0058 721.116
219.004 18.8632 718.073
219.115 20.0007 717.989
218.916 21.0071 718.185
219.009 22.0003 717.982
218.988 22.9651 717.933
219.111 24.1988 715.123
219.205 24.9472 715.259
218.886 26.0367 715.131
219.137 27.0171 715.487
218.957 28.0546 715.484
219.042 28.9819 715.042
219.048 29.797 712.243
219.109 31.123 712.479
218.901 32.0013 712.376
219.052 33.0213 712.414
219.052 34.0379 712.314
218.901 35.0846 712.36
219.067 35.8839 709.598
218.886 37.2412 709.64
218.864 37.9991 709.511
219.033 38.9029 709.678
218.945 39.8936 709.537
219.197 41.1262 709.646
219.02 41.9358 706.819
218.867 42.9657 706.854
218.908 44.076 706.803
219.017 45.0247 706.753
219.046 46.111 706.826
219.064 47.0713 706.724
218.845 47.9962 704.07
218.941 49.0878 704.023
219.058 50.0844 704.171
219.044 50.8981 704.117
218.796 51.9634 703.79
218.915 52.9916 703.981
218.919 54.0132 704.041
218.853 54.9575 704.096
219.036 55.9891 704.09
219.166 57.1389 701.259
218.98 57.8917 701.271
218.96 58.8532 701.358
218.979 59.9011 701.19
218.956 60.922 701.279
219.157 61.9552 701.295
219.028 63.1243 701.116
218.922 63.9594 701.166
219.028 65.1576 698.501
218.828 66.0141 698.503
218.965 67.0435 698.463
219.031 67.919 698.58
219.051 69.0241 698.514
218.823 70.0499 695.833
218.99 71.0791 695.757
219.03 72.1224 695.705
219.018 72.918 695.979
218.951 73.7367 695.945
219.096 75.1028 696.181
218.998 76.0704 695.876
218.947 77.0813 695.858
218.95 78.1494 695.762
219.079 79.0597 693.06
218.912 79.8793 693.116
219.024 81.145 693.047
218.933 81.8468 693.279
219.011 82.9124 693.22
219.061 83.9428 693.141
218.824 85.0139 693.082
219.028 85.9919 634.344
219.025 86.9083 634.621
219.262 87.8499 634.303
218.919 88.9621 634.336
219.066 90.086 634.42
219.142 90.9717 634.383
219.017 92.0776 634.146
219.04 93.0094 634.562
218.733 93.8705 634.265
218.954 95.005 634.27
219.09 95.9011 631.991
219.045 96.987 632.083
219.139 97.9722 632.003
218.977 99.0513 632.1
218.95 99.9492 632.143
218.836 101.134 632.11
218.979 102.021 632.072
218.918 102.818 632.258
218.931 103.883 632.133
218.833 104.728 630.07
219.087 106.017 629.985
219.019 106.797 629.835
218.822 108.095 629.918
218.944 108.994 629.942
218.837 110.146 629.9
219.173 110.954 629.874
218.86 111.882 629.874
218.829 113.012 627.873
219.046 113.87 627.67
218.946 115.002 627.632
219.105 115.975 627.769
219.106 117.056 627.729
218.996 118.088 627.732
219.118 119.09 627.667
218.801 120.05 625.485
218.907 121.139 625.524
219.039 121.876 625.519
218.862 122.924 625.674
218.897 124.059 625.543
219.05 124.965 625.573
218.946 126.118 625.588
218.973 127.063 625.596
219.184 128.025 625.489
218.885 129.101 623.43
218.799 129.949 623.227
219.114 131.098 623.276
218.899 131.984 623.59
218.94 133.177 623.283
218.957 133.994 623.42
218.933 134.983 623.298
218.929 136.01 623.435
218.977 137.008 623.348
218.984 137.851 623.566
219.14 138.95 623.251
218.94 140.036 621.276
219.05 140.974 621.353
218.8 142.039 621.142
218.91 143.105 621.242
218.978 143.878 621.095
219.12 145.043 621.117
218.925 145.995 621.03
218.831 146.863 621.199
219.103 148.118 621.149
218.853 148.784 621.049
218.918 150.082 621.101
219.073 150.933 621.13
219.071 152.038 621.108
219.014 153.147 621.178
219.002 154.168 621.096
218.876 154.97 621.209
219.172 156.129 621.221
218.968 156.997 618.963
219.036 158.219 621.267
219.072 159.066 619.015
218.841 159.98 619.068
219.09 161.074 618.845
219.03 162.009 618.999
219.034 162.992 619.043
219.023 163.913 618.996
219.016 164.955 618.924
219.098 166.001 619.064
219.048 167.098 619.143
219.003 168.022 618.932
219.135 232.929 667.283
218.896 234.03 667.481
219.04 234.899 667.43
218.943 236.07 667.58
218.778 236.897 667.48
219.017 238.035 667.376
218.854 238.831 667.319
219.01 239.901 667.385
218.88 241.17 602.333
219.202 241.945 523.432
219.086 242.941 520.471
218.958 244.004 517.303
218.982 245.034 514.333
219.068 246.022 512.79
219.165 246.966 511.215
218.752 247.955 511.413
219.047 249.006 511.413
218.762 250.067 511.508
218.873 250.961 510.082
219.104 252.038 509.947
219.14 253.056 509.997
219.131 254.058 509.942
218.782 254.927 508.677
219.132 255.975 508.343
218.891 256.882 508.451
219.014 258.094 509.957
219.075 258.982 509.905
219.045 260.036 511.219
219.16 260.936 511.389
219.013 262.095 513.13
218.974 263.109 512.894
218.917 263.961 514.416
218.858 265.049 514.302
218.953 265.968 515.892
218.85 267.104 517.445
219.05 267.872 518.979
219.035 269.086 518.785
218.956 269.875 520.311
218.821 270.975 521.723
219.92 -0.155491 729.555
220.046 0.898815 729.598
219.932 1.99868 729.738
220.167 3.03783 726.634
220.126 3.84743 726.81
220.033 5.15947 726.777
220.018 6.02565 723.869
220.234 7.06518 723.874
219.924 7.98663 723.729
220.062 8.93658 723.965
220.016 10.038 723.95
219.941 11.1455 720.96
219.889 12.1009 721.062
220.042 12.9154 720.846
220.053 14.1029 720.972
220.055 15.1455 721.008
220.059 15.915 720.937
220.056 17.2642 720.835
220.083 18.1595 721.125
219.963 19.1121 718.09
219.865 20.036 718.315
220.225 20.9997 717.929
219.988 22.0587 718.218
220.045 23.1758 718.067
220.052 23.859 718.092
219.956 25.0391 718.126
219.956 25.8849 715.24
219.947 27.2398 715.252
220.108 27.9201 715.084
219.95 28.9612 715.248
220.098 30.1263 715.148
220.113 30.9204 712.527
219.785 31.9006 712.469
219.964 32.9866 712.372
220.076 34.0097 712.366
219.891 34.9255 712.354
220.089 36.037 712.64
219.969 37.0737 709.561
220.017 38.0185 709.702
219.995 38.9995 709.421
219.978 39.8839 709.349
220.004 40.8465 709.458
220.058 41.9882 709.581
220.027 42.9258 706.814
219.989 43.9703 706.703
220.048 44.9731 706.827
220.051 45.9598 706.789
219.982 47.1352 706.765
220.233 48.0361 704.122
219.975 49.0355 703.95
220.037 49.9319 703.978
220.059 50.9372 703.947
219.861 52.092 704.127
220.039 53.1024 703.994
220.036 54.0486 704.207
220.021 54.9234 704.086
220.01 55.972 701.311
219.997 57.0112 701.1
219.746 57.9372 701.255
220.021 58.9292 701.206
219.876 59.936 701.135
219.914 60.9061 701.243
219.868 62.1278 701.363
219.904 62.9252 701.196
219.882 64.0215 701.443
220.097 65.0941 698.445
220.069 66.0577 698.379
220.112 67.173 698.437
220.023 68.1405 698.532
220.028 69.0993 698.398
220.131 69.8504 698.521
219.932 71.1816 695.994
219.942 71.849 695.788
219.982 73.0317 695.711
220.221 73.932 695.873
219.968 74.942 695.878
220.021 76.0738 695.778
220.089 77.0193 695.805
220.055 78.0118 695.819
219.942 79.1452 695.838
220.047 80.0417 693.037
220.223 80.8858 693.139
220.024 82.0046 693.008
219.941 82.9825 693.177
220.071 84.0924 693.086
219.964 84.9878 634.363
219.886 85.9771 634.331
219.997 86.8859 634.177
220.124 87.9525 634.359
219.924 88.9021 634.259
220.068 89.9255 634.343
219.85 90.8339 634.261
220.042 92.1026 634.294
219.969 92.9838 632.208
220.111 94.1926 632.133
219.966 95.0117 632.118
220.074 96.0172 632.166
220.043 97.1044 632.208
220.225 98.1604 632.117
219.918 98.8095 632.237
219.992 99.9107 629.847
220.119 101.016 629.854
219.95 102.109 629.686
220.194 102.943 629.741
220.05 104.096 629.998
220.011 105.102 629.726
220.001 105.886 629.846
220.091 106.858 629.787
220.044 108.041 629.941
219.93 108.922 629.905
219.928 109.981 627.716
219.958 110.909 627.728
220.005 111.995 627.627
219.848 113.031 627.682
220.129 113.976 627.659
219.958 115.05 627.641
219.883 116.012 625.557
219.941 117.208 625.454
220.12 118.092 625.642
220.035 118.965 625.545
219.84 119.914 625.585
220.101 121.16 625.465
220.006 121.876 623.447
220.098 123.03 623.352
220.094 123.995 623.456
220.043 124.804 623.283
219.837 126.092 623.358
219.937 127.15 623.336
220.027 127.983 623.329
219.99 128.995 623.383
219.894 129.975 623.33
220.068 130.895 623.245
219.904 131.966 623.358
220.147 133.028 621.184
220.148 133.905 621.295
219.773 135.005 621.112
219.916 135.987 621.214
219.876 136.914 621.207
220.068 137.999 621.236
220.08 139.025 621.213
219.929 140.019 621.088
220.011 140.898 621.128
220.061 142.048 621.107
219.922 143.041 621.211
219.903 144.14 621.19
220.205 145.014 621.317
219.96 145.907 621.189
220.122 146.954 621.222
219.982 148.172 621.156
220.12 148.811 619.028
220.1 150.042 619.043
219.86 150.878 619.053
219.904 152.01 619.119
219.99 153.067 619.09
220.018 153.986 618.935
220.095 154.89 618.996
220.005 155.949 618.99
219.993 157.08 619.093
220.001 158.066 619.096
219.963 158.881 619.083
219.914 159.859 618.922
219.946 161.088 618.903
220.053 162.137 619.062
219.909 162.972 618.917
219.955 164.008 619.016
219.913 164.936 619.023
219.985 166.13 619.333
220.026 167.103 619.089
219.967 167.901 616.773
219.943 169.002 616.898
219.95 170.139 617.008
219.919 171.086 616.921
219.963 172.266 616.848
219.955 173.016 616.785
220.099 221.035 610.863
219.919 222.173 610.738
220.207 222.954 610.534
220.106 224.073 610.605
220.006 224.861 610.657
220 225.969 610.527
219.799 235.977 604.484
220.097 237.043 604.424
220.124 237.982 604.407
220.084 238.904 602.534
219.933 240.014 602.283
219.94 240.918 602.501
220.035 242.039 600.427
220.015 243.209 523.383
220.113 243.855 520.389
219.914 245.017 517.462
219.98 246.069 515.811
220.028 247.07 515.946
219.918 247.922 512.807
219.937 249.063 512.999
219.877 250.073 511.413
219.945 251.07 511.371
219.988 252 511.642
219.904 253.115 511.44
220.013 253.988 511.47
219.928 255.034 511.573
219.955 255.925 511.374
220.057 256.936 511.541
219.907 258.01 511.436
220.048 258.956 511.445
219.908 259.922 512.934
220.046 260.964 512.843
220.01 261.844 514.438
220.056 263.02 514.338
219.905 263.923 515.894
220.02 264.956 517.414
219.905 265.855 517.331
220.242 266.826 519.004
220.19 268.264 520.254
219.88 269.065 520.368
219.895 269.944 521.889
220.052 271.093 523.427
221.054 0.247011 729.877
220.967 0.994455 729.599
221.044 2.00787 726.835
221.065 2.95211 726.749
220.839 4.08665 726.874
221.029 5.02813 726.916
220.9 5.90099 723.753
220.814 7.198 723.833
220.892 7.90497 723.592
220.815 8.83141 723.983
221.05 10.1906 723.835
221.105 11.1336 720.963
221.019 11.9475 720.929
220.64 12.7843 721.023
221.117 14.0891 721.107
220.905 14.9098 721.175
220.895 16.0854 721.021
221.059 16.9808 721.073
221.115 18.1706 718.071
221.086 18.9454 717.881
220.886 20.1254 718.123
221.1 20.9438 718.099
220.87 22.0643 717.954
221.038 23.0272 717.85
221.013 24.1599 717.893
220.965 25.0441 715.186
221.223 26.132 715.254
221.128 26.9836 715.138
221.121 28.0096 715.102
221.069 28.9775 715.372
220.953 29.9643 715.121
220.889 30.9576 712.532
221.118 31.8261 712.483
221.191 32.8742 712.339
221.062 33.8708 712.294
221.131 34.8683 712.318
220.993 36.1397 712.3
221.104 37.0625 709.62
221.233 37.973 709.659
221.139 38.9716 709.718
221.26 39.89 709.552
220.933 40.9808 709.576
220.965 42.0027 709.595
221.045 42.7238 706.758
220.997 43.8884 706.767
221.086 45.082 706.845
221.114 46.0215 706.801
220.893 46.7262 706.791
220.848 48.0446 704.004
220.992 49.1191 703.809
220.876 50.0981 704.186
221.209 51.0282 703.969
220.94 51.9012 703.948
221.083 53.0533 703.886
221.143 53.9767 704.196
221.065 54.8102 701.115
220.888 55.955 701.407
221.004 56.9537 701.077
221.04 57.9898 701.325
221.105 59.1896 701.262
220.947 60.1169 701.338
220.95 60.9325 701.276
221.032 62.0206 701.368
221.119 62.8413 701.439
220.906 64.0891 701.273
221.055 64.9538 698.354
221.114 66.1867 698.498
220.926 67.1412 698.518
220.897 68.0921 698.642
220.852 68.9619 698.415
220.919 70.2286 698.431
221.185 71.0329 695.762
221.161 71.8802 695.787
220.967 72.8093 695.668
221.034 73.9915 695.807
221.122 75.0762 695.98
221.016 75.8803 695.909
221.011 77.0351 695.928
220.955 77.932 695.792
221.099 79.1554 693.262
220.93 80.0007 693.136
220.918 81.0308 634.282
220.948 82.0921 636.564
221.161 82.9945 634.19
220.887 84.0941 634.385
220.904 85.1167 634.495
221.163 85.9861 634.362
220.825 86.8304 634.445
220.992 87.9513 634.299
220.886 89.0604 634.323
220.994 89.8743 632.166
220.873 91.1818 632.165
220.985 91.8429 632.164
221.075 92.9878 632.236
221.212 94.0276 632.126
221.061 95.1933 632.077
220.989 96.1324 629.86
221.118 97.1432 629.797
221.07 97.8777 629.988
220.846 98.9594 629.934
220.975 99.9639 629.797
221.081 100.868 629.91
221.05 102.021 629.877
220.89 103.019 629.746
221.118 103.719 627.873
221.114 105.16 627.799
220.994 105.994 627.617
220.842 107.08 627.702
221.101 108.039 627.762
220.957 109.004 627.638
221.118 109.965 625.594
221.012 110.747 625.535
220.868 112.149 625.355
221.325 113.142 625.533
221.029 113.952 625.695
221.01 115.049 623.398
220.962 116.151 623.269
220.902 116.985 623.348
220.91 118.162 623.214
220.996 119.07 623.312
221.14 119.949 623.314
221.167 120.997 623.371
220.894 122.186 623.257
221.168 122.894 621.081
220.984 123.857 621.034
221.155 125.037 621.103
220.972 126.035 621.214
221.073 127.038 621.207
220.896 127.956 621.158
220.925 129.114 621.161
221.127 130.06 621.184
221.007 131.137 621.087
220.881 131.846 621.188
220.977 133.001 621.118
221.221 134.075 621.138
220.81 135.084 619.165
221.014 135.996 619.095
220.991 137.146 619.122
221.085 138.169 618.977
220.971 138.786 618.893
220.829 140.202 619.063
220.938 140.862 619.087
221.002 141.958 618.835
221.084 143.009 619.116
221.062 143.853 618.935
220.857 145.057 619.093
221.007 146.064 618.994
220.881 146.977 619.038
220.978 148.037 618.99
221.15 149.152 619.063
220.949 149.975 618.916
221 151.003 619.199
220.982 151.999 619.073
221.132 153.166 618.903
221.051 153.856 619.03
220.965 154.988 619.05
220.918 156.133 618.94
220.917 157.148 619.107
220.831 157.897 617.044
221.094 159.082 617.076
220.956 159.833 616.818
220.948 161.024 616.79
220.952 162.034 616.862
220.964 162.783 616.932
221.025 164.056 616.812
220.961 164.984 616.894
220.993 165.916 617.06
220.857 167.029 616.93
221.022 167.966 616.959
221.159 168.982 616.877
220.998 170.001 616.818
221.035 170.947 616.909
221.031 172.025 616.975
221.03 173.061 616.862
220.84 173.953 617.099
221.029 174.975 617.02
221.11 176.205 617.115
220.816 177.083 616.763
221.148 177.985 614.846
221.15 178.915 614.885
220.873 179.967 614.889
221.025 213.964 610.616
220.967 215.117 610.502
220.886 215.916 610.623
221.077 216.925 610.619
221.01 218.03 610.632
221.089 219.139 610.592
220.937 219.856 610.624
220.926 221.205 610.735
220.986 222.013 608.537
220.804 223.141 608.757
220.986 224.039 608.515
220.869 225.063 608.646
220.757 226.051 608.494
220.917 227.046 608.49
220.942 227.945 608.434
221.171 228.901 606.648
221.091 230.115 606.488
220.996 230.905 606.598
220.964 231.975 604.505
221.037 233.019 604.453
221.067 233.899 604.452
221.162 234.986 604.586
220.878 235.99 604.448
220.931 237.001 602.295
221.02 238.004 602.586
220.98 239.104 602.548
220.96 239.959 600.413
221.062 241.014 600.49
221.032 241.925 598.404
220.942 243.117 531.124
221.064 244.062 523.472
220.993 245.054 520.493
221.103 246.161 520.332
221.159 247.114 518.911
221.128 248.087 515.79
220.881 249.09 517.31
221.03 253.001 512.788
220.946 254.092 512.997
221.031 254.918 512.82
221.036 255.925 513.032
221.13 257.019 512.843
221.02 257.961 513.055
221.148 259.041 512.855
221.059 260.018 514.231
221.062 260.907 514.421
221.008 262 515.791
221.027 263.051 515.801
221.018 264.01 517.321
220.988 265.103 518.654
220.976 266.105 518.897
220.958 267.033 520.343
220.982 268.028 521.887
220.982 269.08 521.945
220.821 270.115 523.301
220.993 271.316 523.308
222.12 0.210625 729.853
222.275 0.995785 729.711
221.834 2.0653 726.855
222.038 2.96998 726.756
221.92 4.16963 726.839
222.011 4.90922 726.837
221.938 6.04283 726.942
221.815 6.82664 726.744
222.022 7.98441 723.792
221.955 8.97525 723.968
221.931 10.0643 723.988
222.03 10.9982 720.731
222.093 11.9412 720.951
222.042 12.8919 720.813
221.942 14.214 720.686
222.125 15.0428 720.962
221.946 15.9968 720.864
222.095 16.9591 720.952
221.804 17.9012 720.98
221.955 18.9442 720.865
221.994 20.1849 717.932
222.047 21.074 718.275
222.136 21.9175 718.163
221.991 23.149 718.066
221.859 23.935 718.049
222.066 25.06 715.146
221.903 26.0337 715.196
221.802 26.9481 715.256
222.029 27.9057 715.339
221.874 28.8779 715.086
221.928 30.1056 715.245
222.039 30.9716 715.115
222.102 32.1179 712.349
222.035 32.9586 712.319
221.875 34.0257 712.315
221.959 35.0658 712.388
221.946 35.9366 712.486
222.02 37.0389 712.385
222.022 37.9778 709.718
221.976 38.9094 709.522
221.959 39.8598 709.466
221.838 40.9242 709.726
221.944 42.0708 709.639
221.996 43.0277 709.572
221.973 43.9913 706.808
222.013 45.0012 706.836
221.958 45.837 706.868
221.98 47.1377 706.893
221.868 47.9666 706.702
221.993 48.7325 704.116
221.984 50.1446 704.092
221.983 51.0493 704.043
221.885 51.7421 703.773
222.076 53.0668 704.164
222.014 54.0637 703.992
222.105 54.8737 701.323
221.998 55.9808 701.288
222.028 56.9829 701.146
222.134 58.0821 701.118
221.874 59.0085 701.33
221.953 59.9916 701.245
222.019 61.0996 701.239
222.036 62.0824 701.261
222.026 63.0025 701.391
221.832 64.0383 701.328
221.979 64.9164 698.389
222.013 66.0224 698.578
221.971 66.98 698.563
222.064 68.0865 698.437
221.719 69.1077 698.568
222.047 70.2024 698.461
221.952 71.0801 695.786
222.014 71.9015 695.752
221.954 72.918 695.82
222.122 74.0202 695.757
222.039 74.9893 695.702
221.974 75.8967 636.605
221.997 76.9202 636.611
221.91 77.9252 634.209
222.089 78.9238 634.538
222.083 79.9708 634.426
221.838 80.7986 634.296
221.981 82.0644 634.126
222.064 82.8726 634.324
221.918 84.0552 634.304
222.09 84.9784 634.391
221.932 85.9847 632.171
222.137 87.0289 632.274
221.979 88.0928 632.067
222.025 88.9606 632.341
221.873 90.0273 631.998
221.882 90.8402 632.194
221.961 92.0868 627.492
221.835 93.0677 627.649
222.091 94.0536 629.928
222.058 94.9757 629.801
221.887 95.9604 627.628
222.016 96.7797 627.828
222.119 98.1462 627.822
221.785 99.0768 627.749
221.889 99.9547 625.55
221.849 100.828 625.613
222.126 101.796 625.425
222.073 103.071 625.462
222.067 104.077 623.446
222.043 105.006 623.183
222.044 106.112 623.171
221.976 107.118 623.488
221.809 107.802 623.119
222.005 108.964 623.135
221.882 109.951 623.406
221.922 110.996 623.596
222.059 111.963 623.419
221.971 113.004 621.124
221.866 114.003 621.182
222.226 115.104 621.317
222.175 115.979 621.256
221.926 117.115 621.117
221.994 117.885 621.255
221.894 119.009 621.188
221.811 120.016 621.002
222.055 120.895 621.29
221.999 121.92 621.098
222.044 122.878 621.172
221.944 123.964 621.148
222.195 125.066 621.277
221.859 125.949 619.018
222.116 127.02 618.993
222.058 128.025 619.066
221.998 129.225 618.983
222.038 129.937 618.967
221.809 130.957 619.031
221.76 132.052 619.132
221.886 132.928 618.979
221.974 133.955 619.048
221.985 134.793 618.855
221.984 135.943 619.062
221.86 137.073 619.141
221.979 137.976 618.913
222.008 138.937 618.984
222.06 139.978 618.897
222.01 140.992 619.04
222.14 141.853 618.927
221.901 142.986 617.003
221.983 143.923 616.773
221.965 145.001 616.878
221.872 145.884 616.974
221.881 147.129 616.791
221.976 148.043 616.949
221.914 149.014 617.076
222.073 150.055 617.101
222.047 150.92 616.793
221.935 151.856 616.824
222.139 152.812 616.859
222.051 154.113 616.806
222.063 154.938 616.885
221.857 155.994 616.683
222.022 157.096 616.72
222.076 158.049 616.766
221.855 158.911 616.8
222.121 159.813 616.903
221.895 161.132 616.905
222.137 161.974 616.939
222.084 163.079 616.929
222.144 164.068 616.874
221.902 164.965 616.82
221.873 166.026 616.872
222.069 166.97 616.973
221.899 167.933 616.85
221.939 168.889 617.059
221.984 170.132 616.772
222.073 170.994 616.899
221.889 171.938 614.853
221.879 173.082 614.738
221.841 174.055 614.797
221.846 174.891 614.752
221.968 176.073 614.815
221.845 177 614.928
222.067 178.01 614.868
222.07 178.831 614.739
222.093 179.9 614.771
222.088 181.271 614.728
222.053 181.969 614.975
222.057 183.093 614.731
222.086 184.115 614.699
221.95 184.828 614.969
222.09 185.976 614.875
222.002 187.158 614.626
222.058 188.018 614.848
221.931 188.868 614.732
222.063 189.897 614.852
222.154 207.098 612.686
222.033 208.104 610.649
222.149 209.1 610.618
222.064 209.988 610.761
222.042 211.001 610.552
222.037 211.873 610.55
221.898 213.206 610.552
222.024 214.202 610.432
221.944 215.144 610.695
222.05 215.977 608.487
221.951 217.045 608.543
221.931 217.986 608.535
221.995 218.802 608.587
221.938 219.791 608.627
221.926 220.952 608.612
222.244 221.875 608.535
222.113 222.866 608.45
221.94 224.036 608.558
222.241 225.038 608.677
222.108 225.724 608.274
221.849 227.158 608.464
222.174 227.969 606.284
222.182 228.891 606.56
221.909 229.966 604.358
221.962 231.002 604.421
221.89 232.035 604.569
222.035 233.078 604.497
221.97 234.141 602.473
221.867 235.043 602.457
222.117 235.969 602.537
222.075 236.951 600.476
222.09 237.847 600.408
221.902 238.951 600.527
221.971 239.889 598.308
221.854 241.036 598.214
222.088 241.989 596.629
221.965 243.01 531.09
222.009 243.919 528.071
222.006 244.898 524.99
221.943 246.071 521.996
221.866 246.961 521.621
221.947 248.101 519.061
221.993 261.111 515.932
221.855 261.858 517.464
221.956 262.919 518.919
222.016 263.967 518.944
221.983 265.132 520.418
222.219 266.114 520.265
222.094 266.941 521.921
222.014 268.156 523.375
221.856 269.072 523.392
222.008 270.007 524.829
221.981 270.797 524.954
223.195 -0.0851518 729.691
223.074 0.913237 726.827
222.835 1.91835 726.839
222.881 3.18003 726.83
222.935 4.0086 726.693
222.785 4.98271 726.791
223.119 5.96618 726.766
223.029 6.7444 723.781
223.056 8.00968 723.859
222.932 9.02747 723.857
222.935 9.83287 723.924
223.25 10.9948 720.98
223.107 12.0125 720.74
223.028 12.7448 720.844
222.892 13.8577 720.973
223.019 15.0061 721.017
223.007 15.7945 721.025
223.109 16.9061 720.894
222.831 18.0791 718.011
223.065 19.1148 718.052
223.025 19.9467 718.035
222.953 20.9662 718.012
223.114 22.0615 718.112
223.019 22.9525 718.162
223.039 24.1112 718.103
223.087 24.8153 718.108
222.903 26.1224 715.123
223.102 27.0695 715.169
222.886 28.0101 715.374
222.832 29.0598 715.134
223.107 29.9294 715.261
222.917 31.0087 712.572
222.967 31.8395 712.502
222.919 32.9915 712.366
223.088 34.1036 712.22
223.257 34.9959 712.143
223.021 36.0606 712.445
223.055 36.6971 712.339
222.828 37.8349 712.34
223.101 39.0564 709.523
222.893 40.1524 709.733
222.989 40.9461 709.484
222.854 42.0094 709.689
223.108 42.9675 709.558
222.903 43.832 706.937
223.047 44.9314 706.783
222.963 45.9481 706.62
223.07 47.05 706.664
222.631 47.9709 706.791
222.918 49.1555 703.966
222.951 49.9676 703.88
223.069 50.9645 703.857
223.048 52.0307 704.057
222.989 52.8809 704.061
223.132 54.0785 703.966
223.172 55.0952 704.184
223.006 55.9278 701.316
222.908 57.0395 701.276
222.924 58.0562 701.152
223.101 58.9516 701.314
223.034 60.0718 701.163
222.993 61.0429 701.129
223.002 61.9795 701.435
222.849 62.771 701.323
223.244 63.9362 701.139
222.87 65.0191 698.519
223.021 66.084 698.549
222.908 67.2274 698.664
223.067 68.1131 698.605
222.884 68.9791 698.546
223.118 69.968 698.643
223.012 71.0269 695.922
222.947 72.0238 636.482
223.094 72.9003 636.471
223.045 73.8907 636.698
223.215 74.8834 636.446
222.842 76.1453 636.763
222.894 76.9443 634.341
223.035 77.8953 634.482
223.012 79.1286 634.482
222.969 79.9154 634.504
223.085 81.0839 634.157
222.962 82.0837 632.097
222.948 83.0118 632.334
222.917 84.0036 629.913
223.026 85.0893 629.888
223.003 86.0611 629.887
223.022 87.0458 629.894
222.964 88.108 627.825
223.055 88.8573 627.735
223.072 89.9809 627.786
223.116 90.8755 627.873
223.11 91.9786 627.717
223.099 93.0106 625.502
223.059 93.9114 625.525
223.276 95.0398 625.617
222.992 95.9605 625.481
222.931 96.9849 625.538
222.929 98.0346 625.503
223.066 98.8856 625.537
222.789 99.9472 625.646
223.02 101.123 625.472
223.034 101.999 625.451
222.917 102.992 623.398
222.926 104.013 623.389
223.088 105.036 623.433
223.078 105.991 623.327
222.977 106.963 623.248
222.853 107.821 623.407
222.986 109.143 623.186
222.867 109.938 623.267
223.092 110.953 623.331
223.123 112.016 623.298
222.929 112.983 621.338
223.044 113.917 621.122
222.88 114.973 621.245
222.973 115.938 621.065
222.87 117.129 621.195
223.008 118.061 621.265
223.118 119.047 621.137
222.99 119.952 621.124
223.033 121.066 621.239
223.013 122.162 621.222
222.864 123.186 619.091
223.212 124.046 619.206
223.016 124.883 618.859
223.108 125.9 618.957
222.928 127.046 619.109
222.767 127.978 618.823
223.032 129.055 619.111
222.961 130.087 619.063
222.957 130.895 618.873
223.152 132.016 618.88
222.982 133.018 617.046
223.172 134.065 616.804
223.047 134.994 616.993
222.997 135.886 616.811
222.996 137.245 616.87
222.978 138.123 617.097
222.973 138.851 616.781
222.966 139.815 616.852
223.082 141.159 617.07
222.934 142.135 616.747
222.983 142.995 616.754
222.936 143.969 616.934
222.963 144.844 616.885
222.945 145.999 616.807
222.883 147.016 616.87
222.929 148.112 617.011
223.066 148.954 616.96
222.982 150.143 616.81
223.065 151.008 616.748
223.061 151.918 616.815
222.902 152.922 614.891
223.033 154.115 614.833
223.11 154.949 614.721
222.948 155.942 614.819
223.049 157.05 614.81
223.112 158.133 614.883
222.916 158.878 614.541
222.996 160.215 614.74
222.933 160.981 614.882
223.041 162.001 614.743
223.143 162.875 614.574
222.889 163.942 614.772
222.969 164.937 614.947
223.021 165.913 614.668
222.9 166.924 614.953
223.059 167.908 614.887
223.078 168.726 614.665
223.055 170.067 614.816
223.013 170.815 614.968
222.952 171.894 614.84
222.967 173.129 614.795
223.134 173.849 614.839
223.058 174.921 614.819
223.017 176.13 614.748
223.104 177.176 615.058
222.971 178.054 614.912
222.896 179.023 614.816
222.958 180.149 614.914
223.043 180.906 614.757
223.018 181.949 614.791
223.025 183.029 614.854
222.965 184.123 614.829
222.968 185.035 614.742
223.024 186.02 614.838
222.967 186.968 614.655
222.992 187.912 614.792
223.137 189.014 612.641
222.971 189.995 612.752
222.886 191.131 614.717
222.935 191.985 612.548
223.179 193.15 612.686
222.951 193.965 612.597
223.039 195.029 612.688
222.992 196.149 612.918
222.874 197 612.765
222.939 197.881 612.662
222.912 198.985 612.634
223.121 200.048 612.507
222.919 201.104 612.592
223.031 201.865 610.629
223.054 203.066 610.746
223.058 204.1 610.512
222.926 205.013 612.711
222.852 206.049 610.611
223.077 207.06 610.497
223.023 208.056 610.623
223.046 209.027 610.571
222.912 210.008 610.716
223.097 211.106 610.58
222.941 211.975 610.473
223.012 212.864 608.747
222.866 213.921 608.547
222.872 214.875 608.448
222.975 216.129 608.506
223.093 216.85 608.266
223.179 217.955 608.5
222.962 218.851 608.381
222.892 220.084 608.463
222.753 221.061 608.537
222.835 222.061 606.548
223.053 223.085 606.481
223.092 224.029 606.703
222.979 225.026 606.598
222.959 225.974 606.482
223.004 227.001 604.588
222.8 228.017 604.642
222.851 228.746 604.567
222.848 230.017 604.316
223.052 230.941 604.683
222.846 231.828 602.541
222.935 233.03 602.488
222.946 234.123 602.532
222.89 235.181 600.309
222.975 235.98 600.283
223.008 236.829 600.337
222.938 237.769 598.464
222.918 239.049 598.48
222.927 240.036 598.342
223.007 241.027 596.461
222.991 242.055 596.248
222.894 242.817 594.333
222.954 244.1 530.942
222.748 245.078 528.194
223.262 245.929 524.771
223.102 247.009 524.937
223.05 248.128 521.831
222.898 262.033 518.888
222.883 262.972 520.291
223.055 263.891 520.46
223.062 264.892 521.753
223.026 265.949 521.808
222.775 266.953 523.294
223.038 268.033 523.362
222.852 268.899 525.035
222.995 270.159 526.344
222.945 270.936 526.355
223.977 -0.136824 729.601
224.121 1.20255 726.79
224.022 2.11888 726.778
224.092 3.07701 726.928
224.056 3.94261 726.881
224.119 4.88347 726.912
223.986 6.03693 726.924
223.88 6.95109 723.731
224.113 7.96117 724.001
224.163 9.02811 724.046
224.071 10.1046 723.9
223.938 10.9672 720.866
224.029 12.0394 720.891
223.949 12.9937 720.804
224.036 14.0214 720.977
224.017 15.1324 720.96
223.956 15.9506 721.074
223.835 17.0126 717.933
223.724 18.0019 718.049
224.008 19.0045 718.162
224.089 20.0512 718.089
224.13 20.8488 718.022
224.122 22.0056 718.063
223.952 23.155 718.114
223.958 23.9496 718.1
223.811 24.926 715.003
224.146 26.0163 715.222
223.964 26.9016 715.235
224.104 27.7488 715.069
223.758 29.1811 715.1
224.099 30.032 715.242
223.886 30.9012 712.24
224.051 32.0094 712.582
224.102 33.0241 712.372
223.973 34.0354 712.297
223.923 35.0662 712.412
224.045 35.8633 712.278
223.998 36.9698 712.416
223.826 37.8744 709.658
223.777 38.9396 709.534
224.064 39.8387 709.606
223.679 40.9701 709.406
223.971 41.9085 709.568
224.015 42.9412 706.656
224.238 43.9885 706.782
224.044 45.0978 706.674
224.125 46.0981 706.761
224.147 47.0938 706.663
224.105 48.0261 706.734
224.068 48.8832 703.936
223.96 50.0456 703.962
223.874 50.8491 704.135
223.934 51.8774 704.047
223.99 53.0242 703.891
224.159 54.2177 703.921
223.955 54.8681 704.061
223.893 56.1211 701.304
224.131 57.0147 701.265
223.896 58.0239 701.156
224.036 58.9443 701.244
224.244 59.967 701.231
223.861 61.1908 701.275
223.922 62.0462 701.377
224.04 62.8449 701.219
223.912 64.012 701.191
223.98 64.9882 698.657
224.08 65.8947 698.582
224.001 67.1478 698.458
224.016 67.9633 638.792
223.828 68.8706 638.935
224.034 69.9495 636.821
223.967 70.778 636.591
223.968 71.9295 636.556
223.942 73.1396 634.161
223.887 74.0614 632.148
224.044 75.0452 632.115
223.912 75.979 632.148
224.158 76.928 629.849
223.874 78.0312 629.823
224.228 79.0032 629.912
223.878 80 630.037
223.929 81.0019 629.732
224.038 81.9073 629.879
223.956 82.8475 630.032
223.893 83.9921 629.748
224.074 85.0538 627.765
224.16 85.9568 627.701
224.055 86.8645 627.528
224.02 87.878 627.597
223.798 88.9864 627.621
224.207 90.1448 627.646
223.889 90.9201 627.526
223.976 91.9452 627.466
224.076 92.8341 627.614
223.911 93.983 627.595
223.926 94.9547 625.618
223.896 96.1019 625.513
224.048 97.0672 625.392
224.035 98.002 625.533
224.221 99.0568 625.376
224.102 100.161 625.427
224.01 100.902 625.616
224.105 102.016 625.573
224 103.127 625.533
223.96 103.702 623.34
224.032 105.005 623.506
223.979 106.007 623.306
223.802 106.857 623.413
223.843 108.183 623.193
223.884 109.08 623.366
223.938 109.957 623.344
224.217 111 623.389
224.099 111.997 623.513
224.015 112.982 621.184
224.011 113.771 621.144
224.143 114.934 621.308
224.014 115.884 620.947
224.06 116.821 621.235
223.959 118.041 621.37
224.039 119.067 621.057
223.968 120.152 621.085
224.079 121.117 621.26
224.066 121.833 621.161
223.924 122.966 619.069
223.992 124.032 619.03
223.981 125.125 619.122
223.92 126.013 619.007
223.921 126.887 619.179
223.955 127.871 619.102
224.056 128.901 618.858
223.972 129.969 619.349
224.078 131.014 618.932
224.009 132.138 616.928
224.177 132.93 616.988
223.862 133.918 616.896
223.97 134.86 616.958
223.985 136.014 616.847
224.23 137.062 616.944
224.075 138.051 617.084
224.022 138.998 616.801
224.001 139.893 616.86
224.012 140.836 617.007
223.994 142.011 614.672
224.03 142.929 614.906
224.062 143.878 614.881
224.027 144.991 614.807
224.016 145.804 614.695
223.887 146.882 614.665
224.069 148.167 614.71
223.79 148.973 614.673
224.007 150.018 614.766
223.822 151.155 614.728
223.998 151.918 614.777
224.099 153.018 614.912
223.92 154.129 614.879
224.003 154.954 614.668
223.869 155.981 614.683
224.007 156.959 614.778
223.9 158.163 614.927
223.79 159.046 614.76
223.889 159.985 614.746
224.068 160.946 614.814
223.967 161.897 614.916
224.045 162.992 614.721
223.995 164.1 614.889
224.075 164.934 614.507
224.021 166.048 614.802
223.92 166.918 614.844
223.858 168.15 614.769
224.077 168.924 614.831
224.258 170.024 614.898
223.883 170.843 614.831
223.938 171.804 614.819
223.976 172.966 614.898
224.114 173.945 612.762
224.097 174.946 612.622
223.981 176.103 614.781
223.866 176.852 614.79
223.861 178.122 612.634
224.084 179.039 612.608
223.884 179.901 612.611
223.817 181.059 612.799
223.949 182.009 612.663
224.099 183.068 612.651
223.937 183.847 612.673
224.087 185.009 612.869
224.019 185.914 612.698
223.897 187.06 612.68
224.088 188.078 612.801
224.054 188.911 612.87
223.859 189.886 612.542
223.959 191.063 612.748
223.87 192.048 612.843
223.987 193.009 612.909
223.991 194.083 612.786
223.847 194.967 612.443
223.843 196.041 612.7
224.039 196.846 612.704
223.97 198.076 612.749
224.02 199.083 612.62
223.918 199.998 610.67
224.09 201.156 610.458
224.117 202.003 610.571
224.023 203.15 610.757
223.965 203.941 610.654
223.963 204.836 610.597
224.031 205.907 610.646
224.076 206.988 610.69
224.065 208.009 610.732
224.124 208.924 610.464
224.007 209.916 608.589
223.95 210.978 608.44
223.943 211.928 608.672
224.126 212.898 608.491
223.972 214.035 608.576
224.206 215.06 608.393
224.03 215.983 608.597
224.068 216.931 608.423
223.922 217.917 606.481
223.913 219.033 606.456
223.939 219.965 606.536
224.145 220.91 606.504
224.008 222.267 606.599
224.07 223.011 606.585
223.898 224.011 604.356
224.078 225.134 604.45
224.129 226.057 604.343
223.933 226.902 604.303
223.968 227.839 604.463
223.832 228.929 604.457
224.075 229.885 604.35
224.245 231.209 602.289
224.04 232.305 602.418
223.892 233.093 600.417
224.089 233.985 600.479
223.912 235.13 600.526
224.231 235.962 598.302
223.971 237.027 598.332
224.012 238.143 598.297
223.88 238.852 596.309
224.057 240.077 596.396
224.111 241.067 594.461
223.842 241.802 594.46
224.156 242.823 592.612
223.955 244.026 592.621
224.04 244.885 531.177
224.059 246.171 528.028
224.043 246.993 526.321
223.943 248.03 524.977
224.004 248.872 523.252
223.977 262.063 521.89
224.004 263.061 521.866
224.009 264.26 521.885
223.944 265.118 523.369
223.936 266.083 523.571
224.208 267.018 524.989
223.823 267.846 524.836
224.032 269.023 526.637
224.24 269.905 526.324
224.195 270.991 528.037
224.889 -0.0437788 729.714
225.166 1.08097 726.766
224.988 1.85787 726.868
224.951 3.02409 726.645
225.12 3.9937 726.955
225.106 4.89957 726.704
224.993 6.06703 726.619
225.014 6.89649 726.876
224.9 7.95796 723.887
224.875 9.06751 723.767
225.059 9.97964 723.764
224.921 10.9901 723.856
225.065 11.9652 721.004
224.9 13.0348 720.871
224.94 13.7501 720.963
224.981 14.8501 721.018
224.932 15.815 720.929
225.085 17.0452 720.948
225.026 18.074 721.068
225.072 19.0831 718.11
224.981 19.9756 718.082
224.886 21.0653 718.12
225.012 22.012 718.04
225.125 23.119 718.109
225.042 23.955 717.928
225.184 24.9924 718.152
225.021 25.8554 717.983
224.86 27.0258 715.203
225.042 27.823 715.24
224.789 28.8397 715.108
225.016 30.1581 715.211
225.059 31.1565 715.355
225.005 31.9458 712.297
224.903 32.8792 712.303
225.094 34.0973 712.419
225.158 35.0811 712.35
225.049 35.9034 712.15
224.98 36.9877 712.41
225.051 38.0288 712.288
225.168 39.1199 709.481
224.916 39.9405 709.539
225.227 40.8776 709.533
225.083 42.0786 709.57
225.09 43.0537 706.77
225.168 44.0527 706.719
224.89 44.9286 706.724
224.937 46.0935 706.915
224.95 46.9416 706.58
225.033 47.9231 706.803
225.143 49.2606 706.542
224.984 49.8819 704.047
224.998 50.9279 704.093
224.927 52.0335 703.758
224.973 52.9526 703.851
225.013 53.963 703.781
224.759 54.9512 703.909
225.019 55.9929 701.351
224.797 57.0312 701.302
225.089 58.073 701.494
224.973 59.0226 701.266
224.978 60.0734 701.387
225.009 60.9749 701.365
225.165 62.0074 701.042
224.849 63.0485 701.276
224.994 63.9652 698.576
225.024 65.0402 636.609
225.081 66.0577 636.545
225.114 67.1212 634.311
225.05 68.063 634.336
225.178 69.1878 632.173
225.004 69.9808 631.968
225.025 71.0056 632.147
224.973 72.0825 632.286
224.804 73.0826 632.081
224.932 74.0242 631.986
225.045 75.0863 629.558
224.758 76.0055 629.892
224.907 77.0869 629.809
225.17 78.113 629.879
224.851 78.9547 629.861
225.048 79.9761 629.871
224.983 81.0063 629.911
224.913 82.0141 629.999
224.928 83.0953 629.767
224.917 83.9234 627.642
224.915 84.904 627.737
224.899 85.9679 627.868
224.921 87.0248 627.742
224.986 88.1021 627.87
225.062 88.9684 627.735
225.004 90.1086 627.686
224.991 91.0683 627.741
224.995 91.7999 627.706
224.997 93.044 627.59
224.994 93.9142 625.511
225.122 94.9518 625.6
225.189 96.0526 625.482
225.121 97.0096 625.52
224.986 98.0684 625.515
225.054 99.0807 625.603
224.841 100.067 625.577
224.988 101.044 625.462
225.084 102.046 625.476
224.87 102.918 625.468
224.986 104.023 625.41
225.012 104.933 623.323
224.958 105.812 623.434
224.901 107.113 623.3
224.896 107.961 623.422
224.979 108.85 623.361
224.906 109.954 623.2
225.042 110.909 623.198
224.868 112.046 623.368
225.054 113.111 623.309
224.97 114.095 623.342
225.074 114.992 621.081
224.972 116.034 621.168
225.219 117.025 621.071
225.074 118.041 621.235
224.931 119.209 621.243
225.088 119.897 621.144
225.038 120.954 621.168
224.979 121.966 621.168
225.114 122.932 621.236
224.873 124.029 618.948
225.19 124.93 618.852
224.932 125.872 619.021
224.927 126.972 619.088
225.022 128.134 618.936
224.966 128.839 618.945
225.119 129.875 618.932
224.993 131.019 619.158
225.021 132.112 617.162
224.992 133.025 616.623
224.808 134.035 616.778
225.034 134.773 616.846
224.782 135.919 617.028
224.959 137.127 616.914
224.95 137.699 616.92
224.994 138.892 614.659
224.933 139.859 614.68
225.101 141.097 614.892
225.013 141.963 614.829
225.046 142.972 614.683
224.881 144.087 614.863
224.948 145.147 614.951
225.133 146.083 614.801
224.928 146.921 614.755
225.022 147.841 614.681
225.033 149.133 614.825
224.948 149.939 614.83
225.103 151.005 612.501
224.967 151.949 612.833
224.981 152.883 612.779
224.921 154.086 612.7
224.907 155.111 612.619
225.031 156.032 612.534
225.03 157.106 612.624
225.089 157.944 612.692
225.134 159.054 612.696
224.947 160 612.781
224.907 161.157 612.68
225.119 162.02 612.731
224.98 162.994 612.622
225.082 163.998 612.595
225.045 165.155 612.628
225.012 166.166 612.606
225.034 167.014 612.906
224.891 167.955 612.639
225.035 168.922 612.667
224.979 170.178 612.87
224.996 171.16 612.684
224.899 172.011 612.795
225.035 172.945 612.705
224.879 174.173 612.831
225.061 175.035 612.778
224.839 176.263 612.664
225.093 177.187 612.795
225.115 178.098 612.684
224.982 178.924 612.753
224.779 180.125 612.644
225.127 181.123 612.75
225.029 182.015 612.427
224.894 182.875 612.634
225.008 184.004 612.674
225.057 185.251 612.614
225.07 185.978 612.857
225.021 187.102 612.77
224.994 188.108 612.772
225.138 188.99 612.634
224.88 189.847 612.758
225.151 190.964 612.543
224.952 191.952 612.619
225.016 193.088 612.675
224.854 193.921 612.744
225.208 195.048 612.504
225.071 195.851 612.762
224.901 197.224 610.707
224.981 198.011 610.649
224.881 199.054 610.757
225.055 199.867 610.569
224.928 201.121 610.486
225.094 202.073 610.579
224.938 203.067 610.523
224.977 203.919 610.367
225.196 204.921 610.624
225.046 205.994 610.635
225.077 207.134 608.427
225.049 208.054 608.595
225.057 208.867 608.549
224.932 209.984 608.534
224.775 211.18 608.46
225.157 211.652 608.613
224.989 213.031 608.58
224.991 214.173 608.616
225.01 214.969 606.386
224.897 215.975 606.631
224.995 216.966 606.507
225.014 218.113 606.473
225.082 219.117 606.478
224.895 219.947 606.51
225.037 220.889 606.423
224.988 221.977 604.464
224.946 222.963 604.435
224.903 223.939 604.554
224.941 225.012 604.504
224.789 225.815 604.392
224.94 226.961 602.603
225.198 228.106 602.534
225.057 228.996 602.548
225.126 230.058 602.615
224.992 231.018 602.44
225.014 231.968 600.546
225.03 233.139 600.522
224.999 233.914 600.42
224.967 235.071 598.492
225.045 236.061 598.48
225.005 237.119 596.403
225.078 237.902 596.408
225.113 238.978 594.297
225.039 240.007 594.505
224.918 241.021 592.374
224.943 242.007 592.492
225.118 243.086 592.53
225.068 243.969 539.036
224.985 244.891 535.781
224.896 246.093 531.164
225.039 246.96 531.245
225.023 248.122 526.336
225.055 248.959 526.358
224.989 262.971 523.396
225.046 263.908 523.331
225.074 265.015 524.976
224.914 266.031 525.064
225.034 266.874 526.472
224.88 267.982 526.597
225.032 268.987 528.048
225.162 270.144 528.018
225.102 271.056 529.712
226.1 0.0417437 726.805
226.229 0.87269 726.911
225.827 1.97021 726.849
225.899 3.11663 726.749
226.078 3.93629 726.856
226.014 5.09027 726.921
225.942 5.99603 726.911
225.992 6.92895 723.992
226.036 7.75104 723.966
225.875 9.08665 723.775
225.947 10.0258 723.899
226.088 10.9773 723.957
225.888 12.0249 721.065
226.016 12.8983 720.936
225.854 14.0975 721.06
225.967 15.0812 720.772
225.939 16.0551 721.017
226.058 17.0232 720.868
226.071 17.9903 718.273
225.849 19.016 718.126
226.11 19.8965 718.029
225.885 20.8691 718.161
226.048 21.9298 717.982
225.898 22.9068 718.211
225.887 24.153 718.055
225.878 25.0428 715.189
226.117 26.0059 715.157
226 26.9832 715.134
226.028 27.9749 715.01
226 29.0898 715.188
225.828 30.1033 714.945
226.049 31.1729 715.068
225.954 31.877 712.285
226.079 33.0406 712.405
226.021 34.092 712.436
226.026 35.2229 712.326
225.924 35.9778 712.289
225.912 37.0409 712.359
225.95 38.0636 712.414
225.894 38.8926 709.368
226.022 40.0887 709.55
226.083 40.9155 709.643
226.015 42.0908 709.708
226.025 43.0832 709.552
225.866 44.0813 706.961
225.83 44.8418 706.669
226.131 46.1673 706.579
226.004 46.8878 706.74
226.09 47.8898 706.873
225.912 49.0299 704.133
226.129 49.9688 704.029
226.219 50.9215 703.974
225.98 51.8968 704.109
225.879 52.9043 704.054
226.035 54.0886 704.163
226.156 54.8819 704.035
225.896 56.0938 704.068
226.055 56.8753 701.07
226.022 58.0669 701.4
226.053 58.77 701.236
225.959 59.9285 701.383
226.154 60.9443 701.077
226.093 62.0659 634.358
225.977 63.007 634.332
225.983 63.8713 634.252
225.922 65.1536 632.079
226.06 65.9424 632.092
226.105 67.0991 632.216
225.796 67.8541 632.065
226.109 69.0389 632.074
226.007 69.9533 632.09
225.88 70.9261 632.261
225.995 72.0201 632.173
226.019 72.9853 632.244
225.9 73.8579 629.989
226.042 74.9912 629.929
225.802 75.8873 630.013
225.731 77.2498 630.272
225.846 78.0002 629.867
226.023 79.0427 629.871
225.994 80.0791 629.982
225.94 80.8938 629.833
226.066 81.9342 629.891
226.01 83.0216 629.867
225.947 84.1376 629.927
225.922 85.0318 627.81
225.86 85.999 627.684
225.993 87.0623 627.458
225.865 87.9088 627.67
226.036 88.8906 627.58
225.888 90.0138 627.765
225.91 90.8717 627.801
226.111 92.1003 627.691
225.796 93.0209 627.733
225.936 93.9277 627.603
225.842 95.0025 627.628
225.927 95.9253 625.527
226 97.0411 625.659
225.995 97.9286 625.428
225.843 98.9894 625.534
226.05 100.053 625.629
226.004 100.98 625.588
226.049 101.969 625.442
226.072 102.96 625.365
225.842 103.908 625.365
225.963 105.01 625.519
225.952 106.098 625.511
226.036 107.014 623.453
225.871 108.047 623.451
225.957 108.883 623.127
225.917 109.861 623.382
225.987 110.939 623.19
226.19 111.95 623.321
225.933 113.1 623.265
226.108 113.997 623.322
225.951 114.978 623.292
226.052 116.062 623.337
225.972 116.886 621.136
225.814 117.986 621.216
226.059 119.09 621.197
225.971 120.071 621.015
226.203 120.884 621.32
225.891 121.991 620.983
225.964 123.056 621.252
225.965 124.032 621.165
226.184 125.107 621.141
225.996 125.929 618.887
225.891 126.994 619.197
225.945 127.846 619.115
226.186 129.111 618.869
225.89 130.178 619.213
226.119 131.057 618.944
226.009 132.032 619.031
225.965 133.09 616.945
226.126 134.096 616.917
226.137 134.993 617.055
225.828 136.1 616.867
226.045 137.103 616.983
226.029 138.1 616.955
226.102 138.998 614.838
225.949 139.841 614.652
226.071 140.961 614.838
226.036 142.043 614.753
226.18 143.047 614.818
225.693 144.202 612.635
225.951 144.967 612.53
225.762 145.912 612.66
226.105 147.163 612.699
225.919 148.073 612.535
226.333 149.148 612.577
225.932 150.045 612.763
225.906 150.978 612.851
225.965 151.982 612.587
226.12 152.972 612.715
225.978 154.136 612.758
225.939 154.879 612.74
226.003 156.045 612.625
226.1 157.003 612.645
225.993 158.087 612.597
226.046 159.076 612.721
225.959 160.026 612.676
225.933 161.023 612.672
225.874 161.907 610.59
225.989 162.934 610.739
226.018 164.063 612.803
226.034 164.902 610.696
225.922 166.082 610.752
226.056 166.885 610.64
225.979 168.138 610.643
226.226 169.064 610.651
225.847 170.016 610.74
226.006 171.091 610.605
226.052 171.931 610.523
226.078 173.042 610.494
225.923 173.95 610.556
226.041 174.919 610.625
226.045 176.016 610.667
226.064 177.012 610.644
226.203 177.982 610.573
225.884 178.939 612.464
225.814 179.956 612.721
225.831 180.967 610.505
225.816 182.103 610.385
226.073 183.109 610.537
226.072 183.985 610.707
226.081 184.846 610.656
226.075 185.815 610.709
225.974 187.164 610.636
226.178 187.981 610.643
225.997 189.025 610.751
225.934 189.895 610.667
225.931 191.014 610.686
226.166 192.115 610.724
226.105 193.009 610.632
225.996 193.968 610.845
226.044 194.845 610.766
226.111 196.029 610.622
225.876 196.874 610.714
225.915 198.08 610.49
226.02 198.868 610.444
225.959 200.099 610.493
226.101 201.063 610.625
225.839 201.985 608.59
225.923 202.895 608.539
225.954 203.951 608.424
225.886 204.97 608.554
226.047 205.881 608.793
226.193 206.91 608.635
225.846 208.059 608.461
226.105 208.891 608.501
226.182 210.082 608.577
225.774 210.912 608.404
226.053 212.058 606.25
225.887 213.075 606.511
225.969 213.942 606.596
225.802 214.881 606.432
226.061 216.008 606.635
225.981 217.062 606.46
226.011 218.087 606.516
225.909 219.034 604.615
226.003 220.089 604.426
225.972 220.973 604.292
225.85 222.109 604.523
225.895 222.92 604.516
225.942 223.95 604.517
225.914 225.076 602.459
226.107 226.075 602.328
225.881 227.01 602.382
226.066 227.931 602.492
226.002 229.045 600.428
226.01 229.991 600.454
225.908 230.977 600.354
225.917 232.072 600.414
226.011 232.932 598.445
226.116 234.017 598.356
226.062 234.911 596.4
226.059 235.928 596.426
225.939 237.06 594.349
226.096 237.979 594.446
226.081 239.002 592.543
226.107 240.211 592.515
226.172 241.136 592.449
225.992 242.058 590.71
225.911 243.138 590.588
225.896 243.847 590.419
225.91 244.991 537.629
226.096 245.879 535.8
226.021 247.005 532.725
225.88 247.987 531.122
226.02 249.021 529.577
226.246 249.934 527.894
225.872 264.054 526.405
226.168 265.063 526.507
