-14.878 -11.8112 -0.395827
-13.9689 -12.2485 0.247891
-14.1544 -12.1689 0.268632
-13.2775 -12.3955 0.225804
-14.0278 -12.3351 -0.559715
-12.6984 -12.551 0.063935
-16.7709 -11.3644 -3.97403
-13.1476 -12.323 -1.11177
-14.0885 -12.2381 -1.79422
-14.5942 -12.0952 -2.98323
-14.4469 -11.3349 1.74638
-16.6249 -10.6247 -0.457067
-14.4334 -12.178 1.08706
-13.8555 -12.2623 1.37307
-14.004 -12.3108 0.880112
-13.6643 -12.3657 0.881312
-13.0476 -12.51 1.43525
-14.1206 -12.3912 0.270636
-14.0115 -12.3499 0.190972
-14.6459 -11.5736 -0.730894
-15.8286 -11.0984 -2.39293
-13.5034 -12.6491 -0.258398
-15.2558 -11.9359 -3.04804
-14.3475 -12.1982 -2.22259
-13.6684 -12.3327 1.10338
-12.752 -12.4437 1.57021
-14.0953 -12.1954 0.545078
-12.6863 -12.6396 1.56418
-13.0535 -12.6028 0.191367
-13.9466 -12.5015 -1.00299
-16.3696 -11.0109 -3.27375
-14.9787 -11.93 -2.18263
-15.059 -11.1009 0.957203
-15.0277 -11.1817 0.430153
-12.6235 -12.5593 1.43749
-16.6687 -10.9348 -1.84271
-15.5268 -11.262 -1.98252
-15.4955 -11.4251 -2.03928
-13.9575 -12.2511 -2.60554
-14.9386 -11.9971 -3.37471
-14.0862 -12.2999 0.982905
-16.7972 -11.1228 -0.813829
-16.5138 -10.9173 -0.416299
-15.7462 -11.3069 -1.86321
-14.7543 -11.1907 0.453976
-16.6487 -10.7627 -0.108408
-14.2685 -12.1666 0.754975
-13.1095 -12.5181 1.28252
-13.6694 -12.3805 1.01116
-13.1692 -12.3493 0.404151
-14.15 -12.2978 0.275985
-13.9479 -12.2426 0.0541835
-15.7866 -11.5216 -0.96057
-13.7213 -12.2637 0.224575
-12.7288 -12.6108 0.707125
-12.9447 -12.3466 0.20686
-12.6862 -12.6828 -0.0678129
-16.0283 -10.8197 -2.2345
-15.9155 -11.2557 -2.06584
-13.1329 -12.6931 -0.372197
-15.0389 -11.8468 -1.69504
-12.8717 -12.6754 -0.697563
-17.7819 -11.2433 -4.27501
-14.805 -12.0287 -3.09377
-13.3382 -12.67 -1.84072
-12.8538 -12.7842 -2.15409
-14.9174 -9.67819 1.30592
-15.0109 -9.61703 1.02199
-13.5802 -12.2824 1.44952
-12.7476 -12.6196 1.63541
-15.0106 -11.1383 0.509226
-16.3552 -10.6348 -0.25693
-13.0688 -12.6019 1.33759
-15.6335 -11.6046 -0.163575
-13.4863 -12.4109 0.465255
-13.4921 -12.5725 0.573677
-15.1417 -11.6664 -0.422411
-15.4769 -11.4635 -1.15913
-16.0032 -11.1499 -1.89638
-13.4483 -12.5966 -0.329059
-13.3415 -12.4596 -0.69296
-13.3196 -12.6703 -0.729488
-15.6576 -11.3033 -2.28822
-15.4189 -11.1726 -2.36316
-14.8787 -12.0373 -1.89893
-13.7216 -12.3665 -1.97749
-16.7456 -11.4324 -3.99399
-13.7606 -12.334 -3.29038
-16.6927 -10.7668 -0.034567
-13.37 -12.5778 1.2963
-14.0119 -12.4067 0.644009
-14.2877 -11.352 0.539522
-13.2877 -12.5478 0.980045
-14.0577 -12.1147 0.380646
-14.0728 -12.3586 0.374804
-14.0028 -12.2889 0.279128
-14.0259 -12.0122 0.118777
-16.4103 -11.1742 -1.02496
-13.9388 -12.331 -0.263981
-14.4235 -11.4924 -0.829522
-13.6106 -12.3259 -0.383352
-13.5743 -12.412 -0.552821
-14.4007 -12.2702 -0.912341
-13.3253 -12.6102 -1.03868
-14.4633 -12.1766 -3.34722
-12.8618 -12.7131 -2.6122
-14.7612 -9.8855 1.25637
-14.3529 -11.44 1.06505
-12.9273 -12.3509 1.47469
-14.1415 -12.1272 1.06519
-14.1421 -12.3597 0.454607
-16.4807 -10.8948 -1.28374
-16.801 -10.8703 -1.47839
-14.4706 -11.4247 -1.07248
-13.0975 -12.6178 -0.307422
-15.5987 -11.355 -2.49737
-16.0124 -11.2154 -3.3199
-15.9244 -11.14 -3.34301
-13.8061 -12.1649 -2.52411
-14.7204 -11.3362 0.267417
-16.2081 -11.2079 -0.231845
-16.8051 -10.984 -1.24577
-15.6756 -11.0901 -2.81531
-12.5852 -12.5421 1.7125
-16.2892 -11.2007 -1.1108
-15.4691 -11.532 -1.69346
-15.3476 -11.6567 -1.88851
-16.4534 -11.261 -0.560382
-13.8031 -12.4574 0.44699
-15.7012 -11.3535 -1.75288
-15.1082 -10.7153 0.857844
-12.8382 -12.5097 1.34398
-12.6866 -13.2675 1.3377
-13.9827 -12.3836 0.883415
-15.2529 -11.1558 0.344195
-13.0331 -12.654 1.16563
-12.7501 -12.767 0.801131
-12.768 -12.5737 0.770622
-13.6307 -12.5577 0.60345
-14.049 -12.2804 0.379835
-16.6029 -10.9619 -0.501157
-16.3676 -10.9056 -0.558739
-13.5078 -12.2255 0.422496
-13.2925 -12.3308 0.338613
-14.0606 -12.4075 -0.0993001
-13.4556 -12.5122 0.141049
-13.1556 -12.6255 0.243823
-13.1853 -12.5837 0.223369
-13.8562 -12.236 -0.0941999
-15.6152 -11.6892 -0.623269
-13.5482 -12.4875 -0.154682
-13.5083 -12.2565 -0.158736
-13.4588 -12.5681 -0.456443
-12.8569 -12.6109 -0.0692149
-14.5347 -12.2627 -0.937443
-15.0905 -11.7848 -1.22886
-12.9448 -12.7025 -0.531918
-13.1322 -12.5092 -1.02964
-16.1498 -10.9817 -2.26661
-13.607 -12.5743 -1.2789
-14.2105 -12.0827 -1.90045
-15.1171 -11.8321 -3.04291
-13.8706 -12.3018 -2.54175
-13.0531 -12.567 -2.38965
-14.2337 -12.2738 -3.06018
-13.9795 -12.2773 -3.22984
-14.8799 -10.0754 1.07734
-12.6746 -12.6937 1.66924
-12.716 -12.4354 1.56192
-12.6847 -12.5254 1.59836
-13.8408 -12.1501 1.31428
-14.0469 -12.185 1.21681
-12.7589 -12.556 1.39145
-12.6609 -12.7229 1.35828
-16.6034 -10.7809 0.354973
-16.6282 -10.7335 0.379814
-13.276 -12.6134 0.926229
-14.9064 -11.2485 0.223637
-14.0197 -12.2808 0.800235
-14.4479 -11.3222 0.334554
-13.1583 -12.4885 0.757806
-16.3968 -10.6382 -0.178396
-13.2747 -12.4742 0.382405
-14.2489 -12.3106 -0.0771068
-15.196 -11.5452 -0.354464
-12.7191 -12.6793 -0.0575581
-14.6064 -11.5853 -0.887429
-13.897 -12.3845 -0.658357
-15.614 -11.6037 -1.25285
-13.587 -12.2898 -0.983872
-16.0221 -10.9929 -2.10083
-15.4664 -11.1463 -2.41019
-16.0003 -11.0363 -3.27691
-16.7998 -11.3694 -3.96761
-15.1668 -12.1229 -3.23864
-14.3125 -12.4311 1.25968
-14.1148 -12.141 0.836506
-14.4931 -11.3012 0.472382
-13.0801 -12.4488 0.599164
-14.2393 -12.1409 0.462068
-16.2309 -10.7472 -0.293772
-14.6335 -11.5544 -0.122313
-13.9556 -12.2261 -0.416487
-16.8901 -10.6422 -1.99034
-15.7914 -10.9866 -1.8151
-14.1933 -12.1983 -1.8176
-15.8138 -11.1314 -2.41463
-16.3275 -10.9236 -3.04992
-15.0014 -11.9194 -3.35374
-14.0927 -12.3645 1.12413
-13.7533 -12.3044 1.22825
-13.5888 -12.4221 0.508673
-14.3811 -12.1108 0.425879
-13.4371 -12.5218 0.783028
-16.3513 -10.8084 -0.015232
-15.7873 -11.3904 -1.26379
-13.7072 -12.3331 -1.5991
-14.4002 -12.1628 1.09811
-13.8809 -12.3953 1.21859
-17.3881 -10.6903 -0.196097
-14.2789 -12.2188 0.559951
-13.5972 -12.3066 -0.211904
-16.9913 -10.9828 -1.29402
-16.4737 -10.8157 -1.14103
-15.7637 -10.973 -2.01841
-15.0112 -11.0446 1.45243
-16.3572 -10.6196 0.335232
-15.3176 -11.6149 -0.28842
-13.9002 -12.4234 -1.61119
-15.2699 -11.1185 -2.88716
-15.036 -11.1622 0.341586
-15.9986 -11.0978 -0.114414
-12.699 -12.5686 1.81629
-12.5985 -12.3981 1.62796
-12.6583 -12.6154 1.49889
-15.8036 -9.08899 1.38993
-14.8869 -9.84083 1.11037
-15.0698 -11.0244 1.04605
-14.0126 -12.1112 1.23359
-14.479 -11.3502 0.923124
-14.3128 -11.2191 0.909586
-13.5514 -12.5134 0.950272
-13.8619 -12.3941 0.934836
-13.2498 -12.6221 0.979283
-13.2292 -12.4537 0.552103
-14.0598 -12.2808 0.651789
-13.9337 -12.4271 0.770556
-14.3366 -12.2817 0.685109
-15.1303 -11.1411 0.592636
-16.54 -10.6822 0.531537
-14.3073 -12.1758 0.620752
-14.7784 -11.4098 0.6101
-15.3565 -11.1487 0.612033
-13.7235 -12.4462 0.457962
-13.5965 -12.3795 0.372774
-14.5903 -11.412 0.578963
-17.2487 -10.5323 0.437618
-17.0822 -10.5604 0.272964
-14.5222 -11.1275 0.261089
-15.505 -11.1338 0.516828
-14.7387 -11.3698 0.365289
-14.0934 -12.3692 0.0985756
-14.8405 -11.556 0.229519
-13.3393 -12.5275 0.194617
-13.5629 -12.3131 0.0819898
-14.6663 -11.5151 0.0873849
-13.8369 -12.0931 0.280522
-14.0594 -12.2086 0.0230213
-14.6757 -11.5541 0.0743717
-15.699 -11.3838 -0.159794
-14.5955 -11.5041 -0.117093
-16.4567 -11.0008 -0.149973
-14.7507 -11.5885 -0.113163
-14.4294 -12.321 -0.115979
-14.4751 -11.6265 0.0625455
-13.9166 -12.3494 -0.0238872
-13.4742 -12.3934 -0.0942431
-13.7595 -12.4293 -0.32689
-14.3152 -12.2649 -0.262429
-12.842 -12.5891 -0.249032
-13.6509 -12.629 -0.306147
-13.2543 -12.4852 -0.316508
-16.5344 -10.9869 -0.770226
-17.9433 -10.7479 -0.97404
-13.7823 -12.1073 -0.902672
-15.6057 -11.6296 -0.847691
-13.4541 -12.439 -0.699386
-15.5297 -11.5154 -0.890695
-13.3313 -12.6147 -0.694971
-12.8718 -12.6168 -0.662157
-14.3072 -12.2809 -1.05016
-13.6103 -12.2841 -1.09237
-13.0897 -12.467 -0.918997
-15.7686 -11.3956 -1.43522
-15.4872 -11.5603 -1.21542
-13.8663 -12.393 -1.37556
-15.1453 -11.8323 -1.761
-14.4526 -12.3139 -1.77766
-17.1852 -10.6614 -2.2761
-15.5499 -11.159 -2.15092
-14.7254 -12.0035 -2.4347
-14.0529 -12.3126 -2.48147
-14.6691 -12.1794 -2.84668
-19.5162 -10.6134 -3.85824
-13.6521 -12.361 -2.54831
-19.1285 -10.7319 -3.98667
-15.4896 -11.9544 -3.31019
-19.3837 -10.8403 -4.14595
-15.1933 -11.7834 -3.25261
-15.1259 -12.032 -3.32622
-18.7978 -10.6441 -4.08305
-13.7907 -12.364 -3.26644
-15.984 -11.7316 -3.84574
-16.9159 -11.1951 -4.03583
-13.5443 -12.2942 -3.53523
-13.0841 -12.5625 -3.44422
-13.0626 -12.5434 1.21661
-13.2367 -12.5355 1.39933
-13.9151 -12.2036 1.2491
-14.0865 -12.2431 1.209
-14.5818 -11.4514 0.828359
-13.3284 -12.4604 0.926703
-14.295 -12.2354 0.928913
-14.3649 -11.5424 0.618655
-16.9325 -10.4633 0.628833
-15.3766 -11.0307 0.460203
-13.0657 -12.7379 0.484772
-16.5947 -10.7287 0.529174
-15.7202 -11.0994 0.429536
-14.2247 -11.5346 0.196342
-14.7505 -11.3307 0.170733
-13.0827 -12.5921 -0.0178147
-13.4542 -12.4512 0.0591169
-14.6411 -11.5812 -0.154814
-16.8107 -10.9312 -0.212824
-14.6295 -11.5799 -0.209352
-14.1969 -12.0642 -0.101727
-16.6254 -10.6459 -0.150585
-13.7869 -12.3476 -0.111085
-13.1406 -12.5808 -0.069337
-13.2743 -12.4813 -0.394053
-13.306 -12.5067 -0.414741
-15.5272 -11.4875 -0.565652
-17.8541 -10.7469 -0.838755
-15.2463 -11.613 -0.684759
-13.741 -12.3198 -0.628763
-13.9524 -12.3261 -0.725556
-16.4799 -11.0514 -1.29337
-17.041 -10.7882 -1.39929
-16.4688 -10.8007 -1.28223
-13.4628 -12.528 -1.10987
-15.6924 -11.4056 -1.48082
-14.9091 -12.0261 -1.32127
-15.7744 -11.2422 -1.52635
-14.8127 -12.0335 -1.86224
-15.8505 -11.0719 -1.85718
-13.027 -12.7101 -1.56482
-15.9483 -11.2355 -2.0585
-12.8612 -12.6169 -1.58912
-16.9664 -10.4724 -2.32598
-18.6181 -10.8647 -2.86741
-15.8471 -11.0285 -2.42257
-13.7771 -12.4499 -2.57548
-14.0722 -12.2326 -2.41954
-13.8283 -12.391 -2.48575
-13.5216 -12.3519 -2.43912
-16.7122 -10.8716 -3.58584
-15.5531 -11.7185 -3.85995
-16.1319 -11.7466 -4.03211
-14.123 -12.3168 -3.52474
-13.0649 -12.5626 -3.55326
-12.709 -12.5597 1.44164
-13.1701 -12.6131 1.27457
-12.8944 -12.6729 1.11822
-13.2497 -12.4951 1.20135
-14.0831 -12.225 1.30044
-14.1272 -12.2469 1.34181
-14.7371 -10.0069 0.895031
-15.0793 -9.26974 0.76283
-14.8204 -9.54359 1.03814
-12.8981 -12.4944 0.863327
-12.7481 -12.6815 0.923039
-14.1477 -12.19 0.979622
-12.7645 -12.725 0.619463
-13.1916 -12.5631 0.637707
-14.2848 -11.4376 0.405196
-15.7777 -11.2751 0.196282
-13.9176 -12.3004 0.00563058
-16.3841 -10.989 -0.132883
-13.042 -12.5063 -0.134253
-14.4409 -12.3353 -0.376441
-14.1235 -12.147 -0.335882
-13.1745 -12.6431 -0.364685
-13.0426 -12.4479 -0.833681
-17.1894 -10.6853 -1.28871
-17.0943 -10.6656 -1.27813
-16.6344 -10.995 -1.14159
-14.5876 -12.1882 -1.36291
-17.069 -10.4724 -2.0293
-16.9631 -10.5751 -1.74626
-17.0622 -10.6537 -2.01088
-16.559 -11.0168 -2.12941
-18.7744 -10.8142 -2.82229
-13.8818 -12.3549 -1.78118
-15.6404 -11.0013 -2.8716
-15.7044 -10.9169 -2.91407
-16.5728 -10.6062 -3.25718
-13.2585 -12.5365 -2.94826
-16.8032 -11.2728 -4.06555
-13.9983 -12.3073 -3.09122
-13.8629 -12.3791 -3.5478
-12.548 -12.5997 1.74999
-12.749 -12.5024 1.57892
-12.5547 -12.6101 1.51358
-14.5539 -11.1628 1.592
-13.8362 -12.3791 1.70786
-14.0177 -12.4425 1.09861
-13.9944 -12.2009 1.03017
-13.8194 -12.539 0.873559
-13.6424 -12.2691 0.587181
-12.5996 -12.6466 0.711089
-15.2272 -10.8575 0.592171
-13.4522 -12.5095 0.712731
-13.6499 -12.3416 0.571884
-13.751 -12.4109 0.895047
-15.7128 -11.0854 0.534335
-15.2259 -11.1442 0.366164
-13.0109 -12.6409 0.1587
-13.2681 -12.3616 -0.0878356
-12.7185 -12.7317 0.0446246
-13.9929 -12.4435 0.00230596
-15.4576 -11.6334 -0.266502
-12.9948 -12.6813 -0.522442
-14.0088 -12.0791 -1.01678
-15.7425 -10.9717 -1.12355
-15.5528 -11.3661 -1.34322
-16.1864 -11.304 -1.69572
-17.0754 -10.642 -2.02167
-16.9629 -10.6901 -2.37629
-15.0325 -11.9414 -2.63199
-16.8187 -10.8584 -3.57843
-13.0707 -12.6059 -3.28162
-15.2413 -9.20987 1.41529
-12.7517 -12.8493 1.40675
-14.4446 -12.1906 1.45814
-12.826 -12.7625 1.24201
-14.2346 -12.2982 1.22332
-14.2477 -12.096 1.2329
-15.1493 -10.5611 0.586111
-15.0463 -10.9987 0.51629
-13.6795 -12.2962 0.686426
-16.214 -10.9064 -0.111996
-16.1626 -11.0705 -0.196001
-12.4041 -12.6653 1.8993
-12.5964 -12.6144 1.63956
-15.1094 -10.924 0.860673
-14.1816 -12.241 0.421611
-13.8058 -12.539 -0.440222
-15.5327 -11.4073 -1.23734
-16.6739 -11.2939 -1.82532
-17.0459 -10.638 -2.17171
-15.1532 -11.1355 -2.05707
-12.8297 -12.3281 1.71835
-13.5438 -12.3683 1.4389
-14.3127 -12.2493 1.31447
-15.1808 -9.34267 0.731151
-14.7433 -11.3332 0.761012
-14.2579 -12.3583 0.269874
-16.618 -10.7109 -0.369872
-13.3083 -12.5143 1.36206
-13.7684 -12.2894 0.300594
-16.0361 -11.1603 -0.473515
-15.7214 -11.365 -2.69347
-13.032 -12.5235 -3.01945
-14.1862 -12.1806 -3.21883
-13.3666 -12.6757 -2.94341
-14.5863 -12.2573 -3.29148
-15.2671 -11.9574 -3.32658
-14.423 -12.3051 -3.19678
-14.6087 -12.2733 -3.01467
-15.2105 -12.0926 -3.56335
-15.0623 -12.1187 -3.27783
-16.0109 -11.9499 -3.48508
-15.4631 -11.88 -3.38882
-14.0552 -12.2646 -2.83168
-15.5005 -11.9099 -3.28342
-15.358 -11.8391 -3.29447
-15.4376 -11.4306 -3.32791
-14.2005 -12.2426 -2.90076
-14.9792 -11.9102 -3.28882
-13.2827 -12.5681 -2.7621
-14.8867 -12.0997 -3.1056
-15.2462 -11.7703 -3.23633
-14.4263 -12.1772 -2.95489
-14.3595 -12.3294 -2.89758
-14.7877 -12.0213 -2.95818
-15.065 -11.8707 -3.22084
-15.1075 -12.2432 -2.81156
-14.6864 -12.1069 -2.71762
-15.0695 -11.9359 -2.99254
-14.6655 -11.9777 -2.85773
-13.4423 -12.4366 -2.47638
-14.8531 -12.1271 -2.80454
-14.3921 -12.1167 -2.60404
-18.0923 -10.9423 -3.47932
-14.1665 -12.3893 -2.52515
-14.4233 -12.2349 -2.86934
-13.7823 -12.4815 -2.53237
-13.3342 -12.5243 -2.40697
-12.9626 -12.467 -2.13628
-15.6416 -11.8609 -2.82136
-15.1354 -11.8229 -2.79808
-13.5145 -12.3645 -2.48995
-13.9837 -12.1097 -2.52624
-15.4856 -11.904 -2.7993
-13.7707 -12.2411 -2.45179
-15.4223 -11.8894 -2.78752
-15.3191 -12.0419 -2.73497
-15.5078 -11.9057 -2.82427
-14.8372 -12.0201 -2.61366
-13.5201 -12.4196 -2.34123
-13.7412 -12.3617 -2.34871
-15.0818 -12.0998 -2.55052
-15.5148 -11.752 -2.57384
-12.4418 -13.7236 -2.30004
-15.2871 -11.9112 -2.34184
-14.8127 -11.8932 -2.29153
-14.213 -12.3467 -2.2807
-14.2742 -12.0958 -2.15386
-14.6861 -12.1888 -2.32339
-14.5064 -12.1357 -2.48735
-14.0799 -12.339 -2.1251
-14.2407 -12.3512 -2.19582
-18.3756 -11.2075 -2.84982
-18.5885 -10.9611 -2.92506
-18.4954 -10.8652 -2.89229
-18.7984 -10.9035 -3.00533
-18.8734 -10.6447 -2.85922
-14.8657 -12.0969 -2.1585
-14.9767 -11.8508 -2.0213
-14.714 -12.032 -1.9664
-14.518 -12.1086 -2.32264
-14.8778 -11.9702 -2.14333
-13.9855 -12.0231 -1.83226
-12.9534 -12.6719 -1.74606
-15.1577 -11.8882 -1.97993
-14.6908 -12.1458 -1.94497
-14.3633 -12.348 -1.82668
-16.9954 -10.6831 -2.31599
-14.493 -12.0468 -1.89267
-14.7203 -12.1192 -1.8857
-14.5742 -11.9957 -1.85947
-14.7672 -12.086 -1.81465
-12.369 -13.7643 -1.60583
-17.3499 -10.5896 -2.10066
-14.9936 -11.9868 -1.71765
-15.2631 -12.0037 -1.92366
-14.7383 -12.348 -1.61687
-14.4727 -12.3419 -1.39752
-18.5234 -10.9125 -2.16269
-13.966 -12.2718 -1.4234
-13.7258 -12.6354 -1.31154
-13.6632 -12.3731 -1.26102
-17.7891 -10.7559 -1.51767
-17.6494 -10.9202 -1.8375
-14.4522 -11.9665 -1.16508
-17.6308 -10.6682 -1.58961
-18.0646 -10.7037 -1.39693
-14.0849 -12.4001 -1.13361
-16.7305 -10.7898 -1.42845
-14.0567 -12.3287 -1.05142
-14.4904 -12.3168 -1.07318
-16.1105 -11.1318 -0.883472
-18.2049 -10.7016 -1.25861
-18.043 -10.8069 -1.15834
-14.3224 -12.0779 -0.720708
-14.9761 -11.4226 -0.773678
-13.8273 -12.1979 -0.76029
-13.9854 -12.2724 -0.7114
-16.0238 -11.2477 -0.754208
-14.0473 -12.3135 -0.565933
-16.43 -10.9742 -0.884637
-15.9446 -11.0927 -0.738007
-16.5483 -10.7304 -0.899455
-13.0714 -12.5529 -0.535795
-16.4071 -10.9877 -0.686996
-16.5554 -10.8341 -0.807594
-16.3388 -11.1517 -0.810182
-16.6696 -10.9111 -0.766964
-15.5364 -11.4977 -0.493619
-14.1371 -12.3189 -0.593361
-12.9115 -12.5698 -0.40956
-16.6283 -11.1901 -0.559412
-13.2693 -12.5925 -0.418218
-15.3899 -11.4752 -0.509066
-15.3959 -11.3912 -0.493159
-15.5231 -11.5706 -0.462368
-15.6147 -11.547 -0.423233
-13.8612 -12.537 -0.162351
-13.8721 -12.0523 -0.588185
-15.5088 -11.5121 -0.322563
-13.9223 -12.5269 -0.370138
-16.5478 -10.8203 -0.433863
-17.6817 -10.8358 -0.421814
-13.2337 -12.475 -0.462221
-15.8604 -11.0477 -0.340594
-16.0084 -10.9666 -0.165531
-16.8919 -10.7731 -0.0373171
-16.7586 -10.9913 -0.0679662
-17.0944 -10.717 -0.340315
-14.0944 -12.2165 0.205872
-13.0248 -12.4664 0.032621
-14.181 -12.2599 0.159734
-14.0687 -12.2654 0.136387
-14.1183 -12.2159 0.0867953
-13.7861 -12.2813 0.0795127
-12.6962 -13.4205 0.345378
-15.6487 -10.9687 0.529306
-15.6698 -11.0971 0.45928
-15.8997 -10.7867 0.285033
-17.2034 -10.5978 0.33048
-15.8429 -11.1251 0.213368
-13.6231 -12.5079 0.523939
-17.3038 -10.6923 0.455206
-17.0366 -10.4727 0.435118
-13.9506 -12.4204 0.464109
-15.544 -11.1105 0.288456
-13.715 -12.1899 0.333421
-13.2202 -12.5504 0.429182
-16.0206 -11.0015 0.499198
-14.352 -12.4081 0.303553
-16.8845 -10.644 0.502499
-16.0168 -10.8785 0.467643
-15.0909 -11.1934 0.483546
-16.682 -10.6718 0.529195
-14.1271 -12.2365 0.585319
-14.0597 -12.1341 0.944858
-13.6992 -12.1407 0.930927
-14.6695 -11.3127 0.903679
-14.6236 -11.3698 1.01997
-13.0931 -12.5826 1.15036
-14.5561 -11.323 1.22052
-15.0571 -9.42366 1.27784
-14.8604 -9.98249 1.12974
-15.4062 -9.23131 1.33241
-14.859 -9.52833 1.34467
-14.483 -11.2086 1.59171
-12.9476 -12.64 -3.00318
-13.3605 -12.5143 -3.10473
-12.6995 -12.6759 -2.73654
-13.3413 -12.5198 -2.90551
-13.3311 -12.3545 -2.93598
-14.9091 -11.9306 -3.1696
-14.6545 -12.1672 -3.20004
-12.7796 -12.7913 -2.86516
-13.6352 -12.3834 -2.90293
-13.6427 -12.4055 -2.99082
-13.7574 -12.3293 -2.81568
-15.1067 -12 -3.28278
-14.1219 -12.1983 -2.9046
-15.0109 -12.1561 -3.19838
-12.8722 -12.494 -2.63327
-15.4809 -11.8742 -3.34839
-14.7177 -12.051 -3.16718
-15.3394 -11.9041 -3.1947
-14.9769 -11.8869 -3.22545
-12.7488 -12.8811 -2.61617
-15.0995 -11.7886 -3.01244
-13.1581 -12.4055 -2.62147
-15.2785 -11.9164 -3.18109
-14.3863 -12.1402 -2.86649
-13.5012 -12.5337 -2.70435
-13.4283 -12.5476 -2.63992
-14.9979 -11.9912 -2.93801
-15.2771 -12.0035 -2.96791
-14.4789 -12.0758 -2.83717
-13.7667 -12.4441 -2.5523
-13.8284 -12.2403 -2.55704
-13.7025 -12.4082 -2.51277
-13.866 -12.2685 -2.54939
-18.7098 -10.8176 -3.53596
-13.7005 -12.4081 -2.54809
-14.0741 -12.1617 -2.54414
-13.7646 -12.2394 -2.2637
-13.1009 -12.5073 -2.20184
-13.0886 -12.3947 -2.25205
-14.3709 -12.2488 -2.46865
-14.6689 -12.1658 -2.50511
-14.1639 -12.2618 -2.33017
-15.1138 -11.9301 -2.66944
-15.1613 -12.1016 -2.37508
-15.0179 -11.9806 -2.4586
-12.8627 -12.5484 -1.94335
-14.1049 -12.3049 -2.12746
-13.1501 -12.5786 -1.97011
-12.9942 -12.4545 -2.0005
-18.7177 -10.9022 -2.82846
-14.8601 -11.9407 -2.09569
-13.5203 -12.343 -1.96441
-13.2877 -12.5097 -1.81852
-13.6814 -12.4657 -1.98175
-15.0081 -12.01 -2.09354
-13.5753 -12.2576 -1.91512
-14.0114 -12.2174 -1.81408
-16.9409 -10.3881 -2.29515
-14.0304 -12.4347 -1.86159
-14.1041 -12.2794 -1.77872
-13.8353 -12.314 -1.91778
-16.0601 -10.9556 -2.11066
-14.8298 -12.0672 -2.11934
-16.999 -10.6382 -2.12812
-14.1771 -12.1544 -1.87041
-15.0226 -11.8907 -1.91066
-12.5928 -12.6469 -1.51297
-17.0501 -10.5845 -1.89315
-13.789 -12.2925 -1.60634
-18.649 -10.7449 -2.50396
-13.1946 -12.6504 -1.27836
-14.7965 -12.1758 -1.38675
-13.3218 -12.4785 -1.30602
-13.1356 -12.4949 -1.20032
-16.4198 -11.0841 -1.65376
-12.686 -12.749 -1.15378
-16.8981 -10.7739 -1.48778
-17.6891 -10.7778 -1.84407
-14.4657 -12.1962 -1.2814
-13.638 -12.5086 -1.29532
-14.3925 -12.2541 -1.2175
-14.8109 -12.1127 -1.27766
-17.9343 -10.8459 -1.49579
-15.5708 -11.6786 -0.892293
-15.9133 -11.2858 -1.00512
-15.7754 -11.4396 -1.06561
-18.1349 -10.6531 -1.07083
-16.0436 -11.204 -1.14311
-13.1063 -12.7494 -0.751297
-13.4902 -12.5888 -0.730039
-13.7707 -12.4084 -0.751853
-13.1748 -12.5389 -0.558908
-13.6113 -12.4166 -0.657103
-13.1533 -12.5975 -0.619433
-13.5423 -12.4377 -0.521173
-14.2837 -12.2917 -0.771777
-14.0512 -12.2366 -0.463562
-16.1478 -11.099 -0.808841
-17.0903 -10.9205 -0.824328
-12.8246 -12.5962 -0.374871
-14.4976 -11.62 -0.674467
-13.1988 -12.7341 -0.314553
-14.5471 -12.3305 -0.727988
-15.425 -11.673 -0.442298
-13.2885 -12.5474 -0.354931
-13.6769 -12.4063 -0.446453
-17.6982 -11.0159 -0.548141
-16.5561 -10.9857 -0.472154
-16.5465 -11.0851 -0.47967
-14.033 -12.471 -0.293059
-16.1273 -11.4084 -0.374196
-12.8044 -12.674 -0.0762154
-15.6953 -11.488 -0.32442
-14.0077 -12.3955 -0.340332
-16.3485 -10.9159 -0.299251
-15.8509 -11.5052 -0.488135
-13.3629 -12.3723 -0.242922
-16.5453 -10.8729 -0.331553
-13.487 -12.5183 -0.316698
-13.4693 -12.4534 -0.350799
-13.3127 -12.4597 -0.173905
-13.3179 -12.5519 -0.0477746
-13.0622 -12.6123 0.0265805
-17.1376 -10.7866 -0.280884
-14.0996 -12.4748 -0.244865
-16.2369 -10.9628 -0.207175
-15.5054 -11.486 -0.0775142
-16.0977 -10.9972 -0.24553
-17.0669 -10.7055 -0.156975
-16.5941 -10.8329 -0.260232
-13.3905 -12.5091 0.0576905
-12.707 -12.5893 0.0677783
-13.8039 -12.4223 -0.187504
-13.2883 -12.5796 -0.17713
-17.789 -10.7211 -0.0069529
-12.7786 -12.7209 -0.00496226
-13.9433 -12.1123 0.0359316
-16.916 -10.6068 -0.226052
-13.2551 -12.5446 0.22135
-13.341 -12.4924 0.176219
-13.7025 -12.278 0.15856
-13.6883 -12.3633 0.0269019
-14.4764 -12.2452 0.135087
-14.252 -12.2502 0.250609
-13.2138 -12.4158 0.209578
-14.2287 -12.1992 0.18548
-13.5242 -12.38 0.346108
-13.8948 -12.258 0.372799
-16.8998 -10.6937 0.221394
-14.2959 -11.3684 0.421128
-14.6488 -11.2633 0.318889
-17.0611 -10.8208 0.17802
-14.6158 -11.312 0.302914
-16.7305 -10.5465 0.434044
-14.6208 -11.2383 0.487815
-15.3226 -11.2013 0.463981
-14.2884 -12.1531 0.458694
-13.718 -12.4327 0.481752
-16.0289 -10.8267 0.450872
-14.1513 -11.8865 0.61735
-14.2576 -12.1482 0.384609
-16.4593 -10.8354 0.610096
-15.389 -11.1591 0.529021
-15.5361 -11.1893 0.811147
-15.3572 -11.1368 0.690421
-15.7211 -10.9793 0.379211
-14.9612 -11.2965 0.632528
-15.8202 -10.9005 0.561146
-14.4534 -11.3685 0.471836
-15.6433 -11.1087 0.568456
-13.8315 -12.3232 0.627003
-13.1792 -12.5237 0.549606
-13.2513 -12.5207 0.695568
-13.0827 -12.4374 0.678405
-14.0425 -12.3072 0.723077
-12.8459 -12.7651 0.781489
-14.01 -12.1608 0.676344
-13.0272 -12.5855 0.667605
-13.7189 -12.1983 0.62479
-13.7497 -12.3503 0.913433
-12.9386 -12.5669 0.803644
-14.2274 -12.267 0.984159
-13.588 -12.4513 1.00009
-14.2333 -12.4615 0.845587
-13.7781 -12.4709 0.900148
-13.1805 -12.3074 0.987733
-13.2532 -12.5242 1.04805
-13.1333 -12.6816 1.08051
-14.889 -11.0572 1.03358
-13.0751 -12.434 1.12386
-13.9054 -12.3202 1.24088
-14.3345 -11.2976 1.12343
-13.8324 -12.2634 1.17592
-12.8482 -12.5754 1.21555
-14.3635 -11.145 0.970172
-12.8715 -12.6792 1.07085
-13.5423 -12.3138 1.29508
-13.7822 -12.3299 1.07688
-14.9314 -9.53162 1.05353
-13.704 -12.3349 1.43662
-14.9298 -9.84988 1.10329
-13.2493 -12.3701 1.16393
-13.3 -12.4019 1.31092
-14.7391 -9.67847 1.03021
-14.6748 -10.0765 1.61708
-13.5694 -12.524 -3.28089
-14.6041 -12.2401 -3.30413
-14.0924 -12.1849 -3.14705
-14.8183 -12.0325 -3.35145
-13.2944 -12.4292 -2.89689
-15.1177 -12.1036 -3.0355
-14.8731 -12.0936 -3.0738
-13.582 -12.3732 -2.90126
-13.7476 -12.3858 -2.8274
-15.2804 -12.0221 -3.31331
-14.9429 -11.8759 -3.17833
-15.3905 -11.7373 -3.39291
-15.0691 -12.0173 -3.20585
-15.2215 -11.9833 -3.19307
-12.5969 -12.7915 -2.81124
-14.6563 -12.1059 -2.95278
-13.3983 -12.2747 -2.82676
-15.1516 -11.9125 -2.98945
-15.7929 -10.6883 -2.99988
-15.3875 -11.9245 -2.7659
-15.1676 -12.0162 -2.74678
-14.9615 -12.0545 -2.90464
-13.6401 -12.4136 -2.34687
-13.464 -12.6169 -2.36202
-13.5391 -12.4725 -2.24704
-14.9353 -12.0086 -2.47049
-18.5489 -11.2126 -3.10342
-18.3415 -10.8083 -3.06627
-18.2727 -10.9883 -2.87223
-13.3716 -12.6512 -1.93618
-14.6792 -12.0191 -2.14328
-13.2661 -12.5652 -1.9476
-18.9699 -10.8679 -2.8599
-15.8042 -11.1066 -2.23682
-14.6818 -12.1172 -1.93528
-13.741 -12.3606 -1.9455
-14.7329 -12.1982 -1.87535
-14.7882 -12.1622 -1.72158
-14.4055 -12.2564 -1.70921
-15.5147 -11.5329 -1.84786
-14.0135 -12.5523 -1.64333
-15.64 -11.5315 -1.81829
-13.062 -12.552 -1.4145
-14.5312 -12.0816 -1.73446
-14.8298 -12.0746 -1.57506
-16.5861 -10.9601 -1.6799
-16.2955 -11.0181 -1.43891
-13.6252 -12.4347 -1.28376
-14.2794 -12.0788 -1.19308
-14.143 -12.0199 -1.24161
-13.861 -12.0945 -1.27871
-14.1519 -12.1404 -1.09949
-12.914 -12.5973 -0.588307
-13.5052 -12.5282 -0.782192
-13.0971 -12.637 -0.624819
-13.3349 -12.4422 -0.8327
-14.3302 -12.0446 -0.828321
-15.6415 -11.524 -0.805993
-17.7792 -10.8479 -0.98063
-14.3315 -12.1277 -0.707382
-14.4077 -12.1756 -0.687226
-15.4917 -11.3137 -0.537621
-17.1954 -10.779 -0.626808
-15.4646 -11.528 -0.398364
-14.122 -12.2149 -0.544479
-15.7193 -11.4816 -0.531678
-13.9282 -12.3557 -0.323658
-12.9656 -12.4944 -0.113766
-16.5248 -11.0436 -0.531802
-15.6062 -11.309 -0.408163
-15.2725 -11.4551 -0.44572
-15.401 -11.4915 -0.621407
-14.5076 -12.0763 -0.365661
-16.2802 -11.08 -0.345846
-16.027 -11.0199 -0.51685
-13.137 -12.5965 -0.250835
-13.671 -12.4211 -0.246512
-12.997 -12.7852 -0.273007
-13.8667 -12.3559 -0.379936
-13.7991 -12.1495 -0.200186
-13.5503 -12.322 -0.270951
-14.2849 -12.3604 -0.246113
-14.0189 -12.1867 -0.18184
-16.3291 -10.8835 -0.206136
-14.0978 -12.3501 0.119869
-16.1454 -10.9757 -0.130444
-14.1089 -12.2687 -0.107104
-14.6928 -11.6468 -0.149725
-14.3424 -12.219 -0.0954155
-14.7151 -11.6916 -0.012542
-16.3211 -11.0108 -0.0975441
-13.034 -12.5541 -0.116489
-17.1621 -10.6815 -0.177211
-17.2447 -10.7976 -0.239625
-17.1584 -10.9269 -0.0902383
-13.1635 -12.4511 0.0693855
-17.3478 -10.912 -0.193719
-14.1782 -12.0985 0.110571
-13.3078 -12.4373 0.138916
-14.0801 -12.0423 0.53515
-13.4119 -12.465 0.193802
-14.2584 -12.1575 0.300548
-14.3774 -12.326 0.291455
-14.4639 -11.535 0.318331
-14.2158 -11.4594 0.363611
-15.039 -11.2458 0.308751
-14.7038 -11.4909 0.346263
-14.8128 -11.1977 0.39839
-16.0227 -10.7919 0.303467
-14.6034 -11.3813 0.303271
-14.4823 -12.2067 0.448294
-14.5704 -12.0161 0.495019
-14.9193 -11.3177 0.380627
-13.2149 -12.5347 0.48662
-14.3612 -11.3184 0.485963
-13.6786 -12.4981 0.481043
-14.2309 -11.4954 0.533332
-15.9251 -10.909 0.444211
-14.6128 -11.2506 0.429591
-15.0793 -11.2692 0.791154
-14.3554 -11.3867 0.584495
-14.2465 -12.366 0.590484
-14.1024 -12.3693 0.81287
-13.793 -12.0953 0.798088
-14.0134 -12.2396 0.558141
-14.2219 -12.3198 0.750959
-13.9724 -12.2188 0.869148
-12.8875 -12.8735 0.814543
-13.7496 -12.1734 0.964844
-14.2007 -12.4637 0.955502
-14.0051 -12.3363 0.953533
-13.4575 -12.4346 0.895689
-13.7886 -12.1075 0.881414
-14.0867 -12.1387 0.891096
-14.2939 -12.1841 0.986525
-14.7432 -11.4133 0.778238
-13.7643 -12.4599 1.07676
-13.4798 -12.5179 1.04078
-14.5193 -11.3007 1.04168
-13.2249 -12.4567 1.27592
-14.4367 -11.4419 1.13649
-13.4302 -12.2948 1.14836
-14.3154 -12.2628 1.10238
-14.627 -11.1342 1.1662
-13.3136 -12.5721 1.20741
-14.7906 -11.1665 1.17185
-14.7722 -11.3597 1.20227
-13.3884 -12.4799 1.1647
-13.9702 -12.2825 1.41207
-13.2952 -12.4598 1.26324
-13.7315 -12.6662 1.30523
-12.8773 -12.7449 1.20009
-13.652 -12.5594 1.28464
-13.7132 -12.0745 1.2233
-13.0735 -12.6795 1.1436
-15.0505 -9.60895 1.18499
-15.2276 -9.32816 1.15564
-13.2147 -12.3988 1.28169
-14.7796 -10.0318 1.20458
-15.8618 -9.05429 1.14296
-14.1552 -12.1446 1.44533
-14.9263 -9.61211 1.3096
-14.466 -11.9873 1.45287
-13.1651 -12.1662 1.54556
-13.5714 -12.4842 -3.35637
-13.5584 -12.4655 -3.26335
-14.1268 -12.2574 -3.31167
-14.0271 -12.2858 -3.32988
-14.2861 -12.2331 -3.12092
-14.3549 -12.197 -3.29798
-14.9101 -12.2186 -3.28159
-14.9275 -12.0635 -3.19326
-15.1936 -12.0128 -2.76962
-15.3518 -11.9393 -2.77502
-16.6664 -10.942 -2.94384
-14.8134 -12.1371 -2.8836
-14.9455 -11.7811 -2.80228
-13.6697 -12.2714 -2.4668
-13.808 -12.3587 -2.20399
-13.2478 -12.584 -2.26358
-14.267 -12.0694 -2.46348
-13.7646 -12.4094 -2.10437
-14.6566 -12.0518 -2.35098
-14.8513 -12.2049 -2.41619
-14.9683 -11.7797 -2.3901
-18.8259 -10.8051 -2.75771
-14.9905 -11.7212 -2.21363
-16.1776 -11.0131 -2.22593
-15.8469 -11.1155 -2.07701
-15.0758 -12.0195 -2.03604
-15.1217 -12.1752 -2.03851
-14.0397 -12.3146 -2.03346
-13.7664 -12.5638 -1.89235
-16.9966 -10.6982 -2.19013
-14.7347 -12.0855 -1.93218
-17.2246 -10.3863 -2.16998
-14.7584 -12.0741 -1.92001
-14.9789 -12.1523 -2.02465
-18.8665 -10.8718 -2.43839
-14.1063 -12.346 -1.87953
-14.6611 -12.1654 -1.96547
-15.3207 -11.9616 -1.81414
-15.1596 -12.0715 -1.65057
-17.1882 -10.6714 -2.1495
-13.4802 -12.6199 -1.56612
-14.2248 -12.3108 -1.58054
-17.0637 -10.6454 -1.60251
-16.6364 -10.9789 -1.60214
-16.5691 -10.9428 -1.57496
-16.3221 -11.1084 -1.7273
-16.8638 -10.9661 -1.74089
-16.6761 -10.9851 -1.60811
-16.436 -11.2819 -1.38849
-16.3018 -11.0158 -1.40895
-13.9103 -12.4988 -0.929237
-12.9488 -12.5972 -0.835112
-17.0776 -10.8508 -1.04778
-13.2228 -12.7189 -0.77396
-15.348 -11.6697 -0.727141
-15.4315 -11.517 -0.934211
-15.3979 -11.7856 -0.715691
-13.7974 -12.2655 -0.771328
-13.893 -12.4133 -0.650059
-14.0284 -12.3406 -0.696314
-15.5142 -11.5511 -0.452271
-17.6967 -10.7723 -0.589049
-16.1551 -11.0217 -0.356954
-15.0922 -11.5156 -0.549877
-13.1001 -12.5907 -0.295672
-17.1522 -10.8868 -0.59006
-15.9723 -11.0604 -0.176693
-13.9061 -12.3077 -0.275645
-16.3605 -10.6767 -0.298325
-14.2337 -12.2026 -0.169996
-15.9962 -11.2491 -0.0357378
-16.6527 -10.9407 -0.212376
-15.2133 -11.6065 -0.159422
-13.8678 -12.381 0.0194219
-15.9836 -11.1629 -0.151411
-12.883 -12.6757 0.265587
-16.8727 -10.7943 -0.160687
-13.1699 -12.5414 0.0183589
-12.7988 -12.7065 0.197946
-12.9859 -12.5301 0.147246
-13.3396 -12.6314 0.0272452
-13.0887 -12.3489 0.257039
-13.3882 -12.3865 0.364013
-14.3696 -11.4825 0.512893
-14.7945 -11.2392 0.179236
-13.9208 -12.1881 0.466889
-15.8221 -10.8567 0.438165
-15.3288 -11.1186 0.38342
-14.7162 -11.3271 0.376109
-14.1396 -12.3197 0.467116
-14.4258 -12.1859 0.438694
-17.073 -10.654 0.337265
-13.8698 -12.3201 0.489537
-14.7978 -11.3222 0.263776
-14.8852 -11.2448 0.407495
-15.5715 -11.039 0.438546
-14.2741 -12.2908 0.617881
-15.2422 -11.0924 0.344322
-13.3945 -12.5031 0.501507
-13.9846 -12.226 0.641099
-13.8683 -12.2489 0.667585
-16.8901 -10.4164 0.951837
-13.3627 -12.5875 0.676699
-14.049 -12.4689 0.822476
-14.1505 -12.2773 1.31931
-13.6791 -12.4776 1.1018
-14.1088 -12.4233 1.05102
-14.282 -12.3773 1.06475
-14.0127 -12.3818 1.31582
-14.1125 -12.2251 1.43448
-13.9969 -12.1718 1.21018
-14.2 -12.2275 1.26372
-15.6776 -9.1435 1.10038
-15.0812 -9.6759 1.40722
-12.7504 -12.5732 1.96801
-13.8052 -12.431 -2.95556
-15.816 -11.7171 -3.36694
-13.0171 -12.634 -2.66317
-15.2948 -11.9507 -2.86358
-15.495 -12.0525 -3.18916
-15.199 -12.0346 -2.96486
-14.826 -12.0822 -2.77761
-14.8334 -11.8974 -2.86236
-14.5319 -12.0138 -2.71097
-14.768 -12.0222 -2.45672
-16.1344 -11.0501 -2.26276
-15.8699 -10.9856 -2.24916
-17.2694 -10.6412 -2.46448
-15.9412 -10.8976 -2.0396
-15.9056 -11.0518 -2.23444
-15.1449 -12.0555 -1.91781
-15.1364 -11.9441 -1.98543
-13.115 -12.5253 -1.37207
-13.3887 -12.3377 -1.45385
-13.4957 -12.5733 -1.23399
-13.4204 -12.313 -1.30808
-16.8479 -10.8976 -1.71934
-14.6535 -12.2124 -1.28205
-14.2943 -12.2955 -1.13771
-13.5719 -12.3851 -1.14352
-16.758 -10.7413 -0.930104
-16.6764 -10.9677 -0.850647
-13.2684 -12.4086 -0.595872
-15.5211 -11.5821 -0.462709
-13.0666 -12.54 -0.269727
-16.0931 -11.2454 -0.551323
-16.0732 -11.0988 -0.482259
-13.7465 -12.5606 -0.382662
-17.6026 -10.9545 -0.446964
-14.2071 -12.2555 -0.0392986
-16.3642 -10.8615 -0.104998
-14.2423 -12.1888 -0.133437
-14.2642 -12.102 -0.196016
-13.9076 -12.2343 -0.143862
-14.6181 -11.7013 -0.0734168
-14.131 -12.178 -0.0394511
-14.1205 -12.2027 -0.0696052
-15.3863 -11.1012 0.382982
-13.949 -12.1746 0.18788
-14.3758 -12.107 0.315699
-14.5475 -12.2629 0.320186
-13.715 -12.3248 0.791165
-14.1612 -12.3548 0.868635
-13.0965 -12.4799 0.873541
-14.3739 -11.2574 0.722752
-14.2534 -12.1376 1.05699
-12.8122 -12.5132 1.16915
-14.922 -11.0346 1.29035
-14.0488 -12.3684 0.926849
-14.1566 -12.0518 1.27335
-14.035 -12.3769 1.19404
-14.9536 -11.3125 1.14121
-14.3697 -11.5011 1.23538
-14.0016 -12.2878 1.26819
-14.0996 -12.376 1.35278
-14.3245 -11.1829 1.28344
-15.004 -11.0284 1.30711
-13.394 -12.4385 1.25544
-14.608 -11.3016 1.43103
-12.7844 -12.2193 1.6419
-14.2895 -11.4714 1.6254
-14.552 -9.99176 1.40562
-14.2256 -12.2009 -2.95928
-15.396 -11.2232 -2.74722
-15.5458 -10.8886 -2.83465
-18.4003 -10.8889 -3.82951
-12.9863 -12.7149 -2.03413
-18.5465 -10.7496 -2.82313
-13.7055 -12.3186 -1.84371
-14.9101 -12.0356 -1.66228
-15.782 -11.5609 -1.47989
-14.2696 -12.0006 -1.15459
-14.2922 -12.2607 -1.18991
-14.5827 -11.2506 -0.994792
-14.0499 -12.4568 -0.674922
-17.1759 -10.7274 -0.591997
-15.388 -11.6252 -0.468839
-13.132 -12.4808 -0.299483
-17.2227 -11.0472 -0.517509
-13.9335 -12.3833 -0.138759
-16.2774 -10.8278 -0.238495
-13.4943 -12.2881 0.0856035
-14.6465 -11.6971 0.0298233
-14.0241 -12.308 0.157313
-14.1821 -12.2618 0.070944
-16.2365 -10.9062 0.247551
-15.9048 -10.8571 0.486857
-16.4833 -10.8648 0.502116
-14.8318 -11.1983 0.347942
-14.4493 -12.1069 0.610986
-13.346 -12.4871 0.66952
-13.1623 -12.6117 0.865289
-13.2299 -12.5898 0.867612
-13.5 -12.4857 1.13512
-14.3958 -12.1689 0.980537
-13.2133 -12.4826 0.937486
-14.0122 -12.2942 1.16497
-14.0642 -12.3603 0.951172
-14.7576 -9.80751 0.87037
-14.0155 -12.1769 1.14899
-14.1167 -12.2817 1.23392
-14.1337 -12.4057 1.24517
-14.1698 -12.42 1.21548
-13.349 -12.4078 1.16778
-13.5259 -12.445 1.57556
-14.8825 -9.87033 1.15778
-15.1597 -9.5657 1.17939
-14.7703 -9.74682 1.33658
-12.6913 -12.5447 1.42782
-15.5192 -11.1338 -2.7346
-16.2905 -10.7988 -2.68754
-17.2991 -10.5573 -2.87892
-16.9759 -10.7739 -2.4061
-14.605 -12.1973 -1.17753
-17.7405 -10.5929 -1.49063
-14.1521 -12.3038 -0.990645
-16.398 -11.0877 -1.14375
-17.1385 -10.6755 -0.59612
-14.161 -12.2386 0.273658
-13.8362 -12.3723 0.604838
-13.9098 -12.2969 0.868395
-12.4548 -13.4012 0.900361
-15.6134 -10.8479 -2.83167
-14.3365 -12.3446 -2.70244
-16.8748 -10.9296 -1.52856
-16.5349 -11.084 -1.38296
-13.4111 -12.4932 -0.50724
-14.1515 -12.223 -0.62511
-16.0675 -10.9473 -0.00507822
-15.8906 -11.3921 -0.0627667
-14.3913 -12.0041 0.0432154
-14.1469 -12.3598 0.161011
-15.0574 -11.29 0.314094
-14.4498 -11.1935 0.495501
-15.4845 -11.0334 0.532876
-13.3739 -12.4474 1.02555
-15.3559 -11.2675 -1.57404
-15.6877 -11.3987 -1.46141
-16.0078 -11.2795 -1.07679
-14.6325 -11.4863 -0.168362
-14.9006 -11.6925 -0.0285117
-14.5681 -11.4728 0.187086
-15.6135 -11.1016 0.404297
-14.4676 -11.2897 0.262025
-13.9702 -12.152 0.934085
-12.5118 -12.563 1.71442
-12.6348 -12.5191 1.58611
-17.6178 -10.8105 -1.30946
-13.8148 -12.397 0.1995
-14.287 -12.3178 0.940647
-14.276 -12.2281 0.983461
-16.3139 -11.181 -0.538174
-16.5523 -10.88 -2.37693
-16.5791 -10.9561 -0.72164
-16.9358 -11.093 -1.36434
-17.7955 -10.6865 -1.45045
-14.7302 -11.2097 1.25476
-14.5833 -12.0463 -0.0157351
-19.1092 -10.7685 -3.83123
-18.4844 -10.9067 -3.50469
-18.046 -11.0905 -3.46776
-18.5637 -10.8736 -2.96148
-18.6533 -10.888 -2.72855
-17.143 -10.5404 -2.92604
-18.8111 -10.8687 -2.36084
-18.6597 -10.812 -2.49115
-16.3969 -10.7894 -2.98615
-17.3963 -10.6109 -2.10068
-17.3028 -10.693 -2.23309
-17.6023 -10.838 -1.56663
-17.798 -10.7781 -1.49673
-17.5815 -10.8573 -1.5326
-18.006 -10.8711 -1.18068
-18.1352 -10.8123 -1.0181
-17.9009 -10.8226 -1.38299
-17.7078 -10.878 -1.34368
-15.902 -11.8897 -3.41357
-15.9746 -10.9043 -2.28492
-15.5741 -11.8884 -3.46763
-15.6274 -11.9533 -3.40226
-17.6822 -10.9229 -0.898921
-15.2743 -12.0151 -3.54032
-15.4382 -11.689 -3.32267
-15.3578 -11.9512 -3.29449
-15.1713 -11.7856 -3.51152
-17.8511 -10.5887 -0.771675
-17.7625 -10.5207 -0.403813
-16.6844 -10.8472 -1.18975
-16.6503 -11.1137 -1.19873
-15.6738 -11.2102 -2.27026
-15.2106 -11.8824 -3.32758
-15.2481 -12.0681 -3.11149
-16.6614 -11.0385 -0.989932
-16.8368 -10.9124 -0.960942
-15.3617 -11.8777 -2.95218
-15.4675 -11.7931 -2.78226
-14.8693 -11.7921 -3.01603
-16.6925 -10.8176 -0.903364
-15.1769 -11.8746 -2.8092
-15.3506 -11.7507 -2.7662
-15.303 -11.7715 -2.6366
-14.6346 -12.0781 -3.42577
-15.3364 -12.2523 -2.69578
-15.8786 -11.6269 -2.0078
-15.1142 -12.1153 -3.11837
-15.2461 -12.0045 -2.6636
-14.8606 -12.0997 -3.03306
-16.4755 -10.9635 -0.66812
-16.3827 -11.0017 -0.657731
-16.4333 -10.9377 -0.876135
-16.4963 -11.0899 -0.598384
-17.0766 -10.976 -0.276152
-14.4429 -12.1458 -3.1005
-16.5166 -11.0336 -0.716606
-14.7154 -12.1126 -2.86788
-15.1294 -12.0623 -2.56293
-14.328 -12.2628 -3.22055
-17.134 -10.6094 0.400841
-14.3842 -12.2215 -3.00336
-15.8045 -9.16398 0.881229
-14.624 -11.9819 -2.70183
-14.2194 -12.3273 -3.1736
-14.1209 -12.2946 -2.78868
-14.3949 -11.9837 -2.79521
-15.6261 -11.5184 -1.43539
-15.6156 -11.3702 -1.44949
-14.0457 -12.3282 -3.153
-15.7873 -9.12693 0.707597
-16.863 -10.6921 0.508886
-14.8668 -11.9769 -2.2426
-14.957 -12.147 -2.00233
-15.2196 -11.8945 -1.8374
-16.3264 -10.806 0.332135
-16.3802 -10.8575 0.278694
-16.0437 -11.1504 -0.304313
-15.9514 -11.2441 -0.211416
-13.9832 -12.4218 -2.66948
-15.4261 -9.04652 0.96546
-13.9834 -12.4028 -2.57693
-14.5011 -12.1495 -2.11659
-15.5801 -11.4586 -0.424972
-15.526 -11.4311 -0.659368
-15.5682 -11.3923 -0.563826
-15.9974 -10.95 0.477588
-15.4033 -11.2726 -0.375442
-13.3809 -12.7182 -3.05036
-13.5729 -12.4471 -2.85864
-15.9051 -10.9828 0.480235
-14.0928 -12.1723 -2.33103
-13.8373 -12.368 -2.35009
-14.1543 -12.343 -1.7619
-15.5104 -11.1957 0.506801
-14.9638 -9.68319 1.23818
-14.1447 -12.2337 -1.67291
-15.2867 -11.2702 0.202175
-15.093 -11.1615 0.25032
-14.509 -11.4809 0.593487
-14.1222 -12.289 -0.460047
-14.0552 -12.2345 -0.575138
-13.6789 -12.3583 -1.24263
-13.9953 -12.3016 -0.674688
-14.5193 -12.2229 -0.255428
-13.8561 -12.3629 -0.276706
-13.4818 -12.5899 -0.535889
-13.2872 -12.3956 -0.6855
-13.7845 -12.4329 0.341156
-13.7796 -12.5143 0.504145
-13.9326 -12.4106 0.844273
-13.7919 -12.2821 1.23445
-18.3853 -10.9945 -3.54532
-18.2092 -11.1845 -3.63565
-16.9906 -10.5143 -2.04353
-17.8362 -10.7533 -1.76044
-17.7541 -10.7972 -1.284
-15.9768 -11.8195 -3.45117
-17.6574 -10.8108 -0.874666
-17.8723 -10.7866 -0.80182
-17.1957 -10.8467 -0.678366
-15.0823 -11.9973 -3.25183
-17.1852 -10.8316 -0.609499
-14.9059 -12.0831 -3.3701
-14.7449 -12.1917 -3.26887
-15.0614 -11.9054 -3.17115
-15.1365 -11.9546 -2.96721
-14.558 -12.1448 -3.42474
-16.6084 -11.1565 -1.01714
-16.5275 -11.0778 -1.06615
-15.0642 -11.8874 -2.98983
-17.7042 -10.8899 -0.104906
-14.7741 -12.0251 -3.2153
-17.3055 -10.7126 -0.277748
-16.4594 -10.9427 -0.811282
-16.6772 -11.0438 -0.602903
-17.0672 -10.7206 -0.322931
-15.719 -11.529 -1.62699
-16.9725 -10.8661 -0.150548
-17.1207 -10.6543 0.491031
-14.2568 -12.3376 -3.20126
-16.1111 -11.1272 -0.639524
-14.8594 -12.2181 -2.03438
-15.693 -9.40987 0.989135
-15.4904 -9.10443 1.08979
-15.6255 -11.4308 -0.950655
-16.0834 -11.3421 -0.0759358
-16.0612 -11.0525 -0.356524
-15.6787 -9.05083 1.28075
-15.4241 -11.5908 -0.828813
-16.1326 -11.4319 -0.125043
-14.7142 -11.9287 -1.87643
-13.5352 -12.4418 -3.21374
-16.4654 -10.6351 0.471801
-15.2385 -9.33955 1.10202
-14.0394 -12.2167 -2.4632
-15.4343 -11.6094 -0.73514
-15.1902 -9.34463 1.30342
-15.8559 -11.0909 0.490646
-13.9409 -12.4688 -2.77332
-15.793 -10.9708 0.388746
-13.4324 -12.4622 -2.68229
-13.9798 -12.4041 -1.97249
-15.5939 -11.0476 0.640728
-14.5217 -12.2111 -1.36112
-14.9218 -9.73332 1.11412
-15.5636 -10.9748 0.483293
-15.4096 -11.0139 0.351291
-14.8119 -9.92324 1.17207
-13.3062 -12.4328 -2.47408
-15.273 -11.2187 0.390377
-13.197 -12.6843 -1.83035
-14.5677 -11.2776 0.425897
-14.7617 -11.2701 0.436676
-13.9997 -12.1504 -0.78156
-14.0887 -12.199 -0.453206
-13.6673 -12.5167 -1.16992
-14.852 -11.3599 0.932057
-14.8614 -11.1856 1.20925
-13.7536 -12.3908 -0.478803
-14.8306 -11.1816 1.15403
-14.2389 -12.131 0.205923
-14.7505 -11.1538 1.27928
-13.6345 -12.5074 -0.678462
-13.9813 -12.47 -0.359182
-13.9684 -12.3017 -0.213814
-14.7735 -11.1961 1.33036
-14.1009 -12.3053 0.366351
-14.207 -12.2135 0.494475
-14.2236 -12.0866 0.397757
-13.7544 -12.4882 0.281885
-14.1919 -12.1314 1.09307
-14.1978 -12.3271 0.929051
-14.3482 -12.2451 0.844261
-13.1119 -12.6261 -0.0275223
-13.9943 -12.4963 0.891633
-13.6784 -12.3344 0.982578
-13.7389 -12.4411 0.818553
-13.8233 -12.3387 1.16724
-13.6852 -12.404 1.35598
-12.9863 -12.5777 0.728663
-18.6745 -10.8748 -3.29364
-18.4177 -11.0199 -2.96358
-18.7642 -11.0347 -2.64321
-17.2045 -10.5122 -2.43456
-18.4252 -11.1197 -1.96175
-15.7603 -11.1226 -3.20233
-16.2904 -11.0077 -2.39849
-17.7372 -11.0079 -0.745653
-17.1516 -10.8992 -1.01082
-15.0349 -11.7977 -3.30386
-15.7381 -11.3588 -2.37804
-16.3423 -10.9192 -1.49182
-14.6509 -12.0619 -3.3142
-16.7994 -10.7869 -0.33481
-15.8193 -11.2146 -0.97547
-14.9527 -11.9196 -2.12659
-14.6251 -12.1182 -2.56546
-14.671 -12.0772 -2.52901
-16.5857 -10.5916 0.410585
-16.3966 -10.7727 0.22045
-15.5785 -11.531 -0.864065
-14.0993 -12.2258 -2.50695
-13.3316 -12.6591 -3.20739
-16.1996 -10.8496 0.455128
-15.3697 -11.651 -0.81244
-13.9586 -12.0783 -2.29834
-14.905 -9.27037 1.4392
-14.3121 -12.3464 -1.81597
-15.5998 -10.8578 0.7046
-15.4534 -10.9529 0.49026
-15.2422 -11.1207 0.316413
-15.4923 -11.0418 0.35971
-14.4092 -12.2792 -1.23009
-15.1295 -11.2276 0.445893
-14.7809 -9.56328 1.84914
-13.5995 -12.4126 -1.5977
-15.0611 -11.2972 0.53859
-14.903 -11.2788 0.566481
-14.7583 -11.2495 0.296268
-14.3078 -11.3363 0.46979
-14.783 -11.1991 1.0118
-14.1488 -12.0669 -0.151512
-13.5975 -12.4253 -0.722946
-13.4338 -12.6126 -0.714735
-14.2244 -12.1019 -0.045175
-14.0916 -12.2084 0.0790352
-14.3332 -12.3795 0.156411
-13.4795 -12.5179 -0.675206
-13.9993 -12.2256 0.209652
-13.0332 -12.4025 -0.710536
-13.529 -12.5339 -0.103327
-13.4978 -12.5215 -0.153806
-13.1118 -12.5067 -0.521905
-14.5351 -11.0386 1.7059
-14.0015 -12.3848 0.860273
-14.0214 -12.344 0.837769
-14.0526 -12.3248 0.939535
-13.4291 -12.3876 0.406105
-13.5118 -12.5081 0.732585
-13.1898 -12.3063 0.240861
-13.597 -12.3483 0.940167
-13.5606 -12.7029 1.0189
-13.8434 -12.2575 1.27435
-12.7029 -12.5446 0.102234
-13.6706 -12.6691 0.96938
-12.8717 -12.5991 0.256864
-13.41 -12.5411 1.39712
-12.9222 -12.5797 1.1924
-12.5643 -12.5212 1.69211
-17.068 -10.5765 -2.77651
-16.4832 -10.7187 -2.97028
-16.072 -11.2018 -3.21597
-16.9757 -10.9969 -1.8743
-15.9362 -10.8799 -2.17525
-17.3499 -10.7279 -0.799132
-15.9731 -11.067 -2.10629
-16.6925 -10.977 -1.14598
-17.7698 -10.7625 -0.645581
-16.9352 -10.7683 -0.796114
-15.4939 -11.9092 -2.64372
-17.3003 -10.8914 -0.163536
-17.117 -10.8075 -0.171688
-15.0961 -12.0966 -2.32206
-14.8887 -12.0508 -2.12512
-14.3032 -12.3099 -2.94259
-14.7873 -12.1004 -1.94455
-13.2726 -12.6056 -3.13893
-15.5258 -11.5566 -0.577974
-14.972 -12.1785 -1.65575
-15.6108 -11.5001 -0.615787
-14.5881 -11.517 -0.950937
-13.3406 -12.3057 -2.5529
-13.5376 -12.613 -2.46952
-15.4273 -11.764 -0.33406
-15.0498 -9.33771 1.34907
-15.2516 -11.4709 -0.0451277
-14.6849 -9.9304 1.10718
-14.6126 -12.2296 -1.17952
-14.5806 -11.7078 -0.0438112
-14.0629 -12.3858 -0.92953
-13.8067 -12.2803 -1.10715
-13.5111 -12.4046 -1.05936
-13.0919 -12.5568 -0.596587
-13.906 -12.5237 0.0209921
-13.9945 -12.2985 0.636982
-13.3046 -12.4469 -0.123324
-14.0516 -12.3384 0.83586
-13.168 -12.5915 -0.229141
-13.5394 -12.446 0.489015
-13.1025 -12.5783 -0.207631
-13.9898 -12.2086 1.10713
-13.7012 -12.2332 1.19848
-13.2268 -12.3925 0.900259
-12.9648 -12.6141 1.18517
-18.4764 -11.0475 -3.24166
-18.5983 -11.0269 -3.33688
-16.4732 -11.0826 -2.95838
-15.9338 -11.0809 -2.031
-16.5698 -10.8301 -1.30052
-17.1561 -10.7671 -0.616375
-16.1955 -11.0214 -0.652995
-16.9613 -10.5346 0.582913
-13.6523 -12.4775 -2.78793
-14.8332 -11.9403 -1.63184
-15.7069 -11.3446 -0.22308
-13.6847 -12.4731 -2.27561
-12.936 -12.5803 -2.87952
-14.7529 -9.89721 1.19508
-13.2661 -12.6014 -2.03496
-14.8211 -11.0462 0.429084
-14.7439 -11.1895 0.410551
-14.8158 -11.0906 0.769266
-14.3532 -12.0913 -0.193872
-13.2786 -12.5898 -1.51837
-13.6028 -12.5765 -1.01462
-14.4366 -12.0822 0.107501
-14.351 -11.4322 1.14053
-14.0264 -12.3087 0.557955
-14.0361 -12.4653 1.27852
-13.6393 -12.3119 1.01341
-13.9539 -12.3975 0.930151
-13.3425 -12.4331 1.38158
-12.5591 -12.5414 1.4342
-17.7194 -10.7837 -1.76265
-16.9984 -10.7809 -1.95269
-15.9383 -10.9009 -2.14705
-16.6961 -10.9498 -1.71335
-16.2917 -11.1105 -1.01584
-16.0642 -11.1802 -0.86946
-16.0785 -11.2742 -0.125162
-16.2553 -10.6642 0.447697
-13.2096 -12.6813 -2.91182
-15.0386 -9.89343 1.09977
-14.4865 -11.7195 0.118652
-14.2124 -12.1128 -0.10165
-13.4927 -12.3174 0.723858
-13.3515 -12.605 1.20123
-12.4944 -12.4893 1.5217
-15.1565 -11.9091 -2.95905
-15.1406 -11.385 -2.35811
-14.4185 -12.123 -3.3143
-15.1764 -11.5955 -1.55318
-14.6962 -11.4173 -0.459166
-14.5605 -12.099 -0.900087
-14.8627 -11.4912 0.521447
-14.3629 -12.2438 1.15809
-13.7104 -12.2282 1.17668
-12.4319 -12.4948 1.68506
-12.4094 -12.7146 1.64294
-16.5149 -11.0877 -0.832214
-15.2016 -11.2855 -1.98165
-14.4595 -11.5067 -0.977677
-15.7373 -11.1465 0.264317
-15.4191 -10.8425 0.383342
-14.7805 -9.88491 0.900621
-14.7273 -11.6505 0.126703
-14.3857 -11.2214 0.496605
-14.0275 -12.2447 -0.115924
-17.7708 -10.7686 -0.356833
-15.5612 -11.5589 -0.308121
-15.6694 -11.5605 -1.96182
-16.4094 -11.1691 -0.810919
-12.3239 -12.7781 1.6252
-17.9259 -10.5948 -2.07509
-14.924 -11.0061 0.992236
-17.9817 -10.6813 -1.38814
-16.4542 -10.798 0.247305
-15.6536 -11.6836 -2.42865
-15.223 -9.31588 1.37644
-19.2469 -10.866 -3.36629
-19.3617 -10.966 -3.53769
-18.8846 -10.7814 -3.21687
-16.9485 -10.6233 0.434622
-17.0933 -10.5934 0.528682
-18.8707 -10.8009 -2.41519
-17.6414 -10.8328 -0.382019
-17.0359 -10.6358 0.433782
-18.1592 -10.8167 -1.0385
-16.8949 -10.6758 0.651783
-17.8055 -10.442 -1.94727
-18.4289 -10.8061 -3.07909
-18.3892 -10.7678 -2.8582
-17.6777 -10.867 -1.36406
-18.6186 -10.8169 -3.58139
-18.5476 -10.8248 -2.79432
-17.6545 -10.8697 -1.63447
-17.8877 -10.8122 -1.48887
-17.6331 -10.9705 -1.64415
-17.6456 -10.8658 -1.56799
-18.5689 -11.0816 -3.42332
-16.4202 -10.656 0.403072
-15.0431 -9.49558 1.002
-17.2545 -10.455 -2.87515
-18.109 -11.0712 -3.42907
-18.4802 -11.106 -3.61711
-16.9935 -10.6623 -2.13157
-16.7135 -10.8182 -0.963874
-16.8616 -10.8963 -1.11312
-16.6133 -10.9541 -0.754766
-16.5674 -10.6772 -0.768125
-16.7457 -11.0081 -0.952351
-15.9751 -11.0478 0.514002
-16.4732 -10.9615 -0.615412
-15.9779 -10.7348 0.3952
-16.5329 -11.1474 -0.534134
-16.7064 -10.7618 -1.40137
-16.7576 -10.9173 -1.28227
-15.8248 -10.881 0.328032
-16.1569 -10.9608 -0.164384
-16.1115 -11.1667 -0.230517
-15.6251 -11.0043 0.381566
-16.1229 -11.2387 -0.0285953
-15.3123 -11.1502 0.332971
-15.1224 -11.0353 1.39823
-15.5345 -11.3238 -0.358751
-15.4811 -11.3849 -0.639765
-16.002 -11.1503 -3.14169
-15.7929 -11.1139 -3.2275
-15.7731 -11.2769 -1.99009
-14.9478 -11.2923 1.21142
-15.5148 -11.7637 -3.13372
-15.4344 -11.79 -2.78417
-15.3238 -11.9645 -2.64739
-14.5125 -11.6347 -0.540286
-15.1701 -12.0033 -1.95785
-15.2431 -11.9071 -3.32283
-15.3343 -11.8953 -2.91695
-15.1743 -12.0409 -3.20753
-15.0809 -12.0337 -3.06942
-15.1292 -12.0316 -2.9713
-14.9348 -12.1904 -2.16815
-15.0488 -12.0142 -3.12697
-15.0812 -11.951 -2.98744
-14.8508 -12.1551 -2.64219
-14.6693 -12.0602 -2.83618
-14.6686 -12.2886 -2.21873
-14.1029 -12.2037 -0.0287771
-14.2624 -12.1449 -0.495763
-14.0252 -12.1822 0.198174
-13.9946 -12.3112 0.666123
-14.2714 -12.1902 -1.71865
-14.1275 -12.328 -2.41582
-13.9259 -12.3453 -0.288587
-14.0309 -12.3791 -0.751951
-14.0929 -12.2273 -2.18171
-14.3471 -12.4091 -2.98491
-13.757 -12.2131 0.212068
-14.152 -12.1376 -2.65112
-13.3411 -12.344 -0.507132
-13.2508 -12.3845 -0.139784
-13.7009 -12.4229 -2.57749
-13.5901 -12.3708 -2.81993
-15.6732 -9.04941 1.08162
-15.7883 -8.98835 1.14829
-15.4446 -9.29977 0.992884
-15.3463 -9.29444 1.33037
-15.0546 -9.17856 1.41497
-15.0187 -9.17359 1.57416
-18.0981 -10.7086 -1.1696
-17.8943 -10.7064 -0.582832
-17.6908 -10.9568 -0.204994
-18.5517 -10.854 -2.6959
-18.616 -10.9123 -3.56733
-16.7249 -10.6288 0.440805
-17.7444 -10.69 -1.0624
-15.1466 -9.37024 1.09761
-18.4962 -10.931 -3.33522
-14.8544 -9.50793 1.47094
-17.0793 -10.7723 -0.685022
-14.9125 -9.68886 1.12998
-17.1911 -10.85 -0.699823
-17.1263 -10.6666 -0.952232
-14.8581 -9.82659 1.07698
-14.6278 -9.86179 1.36094
-16.4363 -11.0033 -0.155516
-15.9715 -10.9481 0.41158
-16.2613 -10.8963 -0.146216
