207.0 119.0 680.000027
207.0 120.0 680.000027
207.0 121.0 677.433989
207.0 122.0 677.433989
207.0 123.0 677.433989
207.0 124.0 677.433989
207.0 125.0 677.433989
207.0 126.0 677.433989
207.0 127.0 674.887245
207.0 128.0 674.887245
207.0 129.0 674.887245
207.0 130.0 674.887245
207.0 131.0 674.887245
207.0 132.0 674.887245
207.0 133.0 672.359577
207.0 134.0 672.359577
207.0 135.0 672.359577
207.0 136.0 672.359577
207.0 137.0 672.359577
207.0 138.0 672.359577
207.0 139.0 672.359577
207.0 140.0 672.359577
207.0 141.0 584.755724
207.0 142.0 584.755724
207.0 143.0 584.755724
207.0 144.0 582.857166
207.0 145.0 582.857166
207.0 146.0 582.857166
207.0 147.0 582.857166
207.0 148.0 582.857166
207.0 149.0 582.857166
207.0 150.0 582.857166
207.0 151.0 582.857166
207.0 152.0 582.857166
207.0 153.0 582.857166
207.0 154.0 582.857166
207.0 155.0 582.857166
207.0 156.0 582.857166
207.0 157.0 582.857166
207.0 158.0 582.857166
207.0 159.0 582.857166
207.0 160.0 582.857166
207.0 161.0 582.857166
207.0 162.0 582.857166
207.0 163.0 582.857166
207.0 164.0 582.857166
207.0 165.0 582.857166
207.0 166.0 584.755724
207.0 167.0 584.755724
207.0 168.0 584.755724
207.0 169.0 584.755724
207.0 170.0 584.755724
207.0 171.0 584.755724
207.0 172.0 584.755724
207.0 173.0 584.755724
207.0 174.0 584.755724
207.0 175.0 584.755724
207.0 176.0 584.755724
207.0 177.0 584.755724
207.0 178.0 586.66669
207.0 179.0 586.66669
207.0 180.0 586.66669
207.0 181.0 586.66669
207.0 182.0 586.66669
207.0 183.0 586.66669
207.0 184.0 586.66669
207.0 185.0 586.66669
207.0 186.0 586.66669
207.0 187.0 586.66669
207.0 188.0 586.66669
207.0 189.0 586.66669
207.0 190.0 588.590187
207.0 191.0 588.590187
207.0 192.0 586.66669
207.0 193.0 586.66669
207.0 194.0 586.66669
207.0 195.0 586.66669
207.0 196.0 588.590187
207.0 197.0 588.590187
207.0 198.0 588.590187
207.0 199.0 588.590187
207.0 200.0 588.590187
207.0 201.0 588.590187
207.0 202.0 588.590187
207.0 203.0 588.590187
207.0 204.0 588.590187
207.0 205.0 588.590187
207.0 206.0 588.590187
207.0 207.0 588.590187
207.0 208.0 588.590187
207.0 209.0 588.590187
207.0 210.0 588.590187
207.0 211.0 588.590187
207.0 212.0 588.590187
207.0 213.0 588.590187
207.0 214.0 588.590187
207.0 215.0 586.66669
207.0 216.0 586.66669
207.0 217.0 586.66669
207.0 218.0 586.66669
207.0 219.0 586.66669
207.0 220.0 586.66669
207.0 221.0 586.66669
207.0 222.0 586.66669
207.0 223.0 586.66669
207.0 224.0 586.66669
207.0 225.0 584.755724
207.0 226.0 584.755724
207.0 227.0 584.755724
207.0 228.0 582.857166
207.0 229.0 582.857166
207.0 230.0 582.857166
207.0 231.0 580.970897
207.0 232.0 580.970897
207.0 233.0 580.970897
207.0 234.0 580.970897
207.0 235.0 580.970897
207.0 236.0 441.081099
207.0 237.0 441.081099
207.0 238.0 442.167505
207.0 239.0 442.167505
207.0 240.0 443.259277
207.0 241.0 444.356453
207.0 242.0 445.459075
207.0 243.0 446.567182
207.0 244.0 447.680816
207.0 245.0 448.800018
207.0 246.0 449.92483
207.0 247.0 452.191454
207.0 248.0 453.333351
207.0 249.0 455.634536
207.0 250.0 457.959202
207.0 251.0 460.307711
207.0 252.0 462.680431
207.0 253.0 465.077739
207.0 254.0 468.720645
207.0 255.0 471.181121
207.0 256.0 478.720019
207.0 257.0 482.580664
207.0 258.0 485.189208
207.0 259.0 486.504084
207.0 260.0 489.155333
207.0 261.0 491.835636
207.0 262.0 493.186833
207.0 263.0 494.545474
207.0 264.0 497.285338
207.0 265.0 498.666686
207.0 266.0 500.05573
207.0 267.0 501.452534
207.0 268.0 504.269683
207.0 269.0 505.690161
207.0 270.0 507.118664
207.0 271.0 508.555261
208.0 0.0 726.801648
208.0 1.0 726.801648
208.0 2.0 726.801648
208.0 3.0 726.801648
208.0 4.0 726.801648
208.0 5.0 723.870997
208.0 6.0 723.870997
208.0 7.0 723.870997
208.0 8.0 723.870997
208.0 9.0 723.870997
208.0 10.0 723.870997
208.0 11.0 720.963884
208.0 12.0 720.963884
208.0 13.0 720.963884
208.0 14.0 720.963884
208.0 15.0 720.963884
208.0 16.0 720.963884
208.0 17.0 718.080029
208.0 18.0 718.080029
208.0 19.0 718.080029
208.0 20.0 718.080029
208.0 21.0 718.080029
208.0 22.0 715.219152
208.0 23.0 715.219152
208.0 24.0 715.219152
208.0 25.0 715.219152
208.0 26.0 715.219152
208.0 27.0 715.219152
208.0 28.0 712.380981
208.0 29.0 712.380981
208.0 30.0 712.380981
208.0 31.0 712.380981
208.0 32.0 712.380981
208.0 33.0 709.565246
208.0 34.0 709.565246
208.0 35.0 709.565246
208.0 36.0 709.565246
208.0 37.0 709.565246
208.0 38.0 709.565246
208.0 39.0 709.565246
208.0 40.0 709.565246
208.0 41.0 706.771682
208.0 42.0 706.771682
208.0 43.0 706.771682
208.0 44.0 706.771682
208.0 45.0 706.771682
208.0 46.0 706.771682
208.0 47.0 706.771682
208.0 48.0 706.771682
208.0 49.0 704.000028
208.0 50.0 704.000028
208.0 51.0 704.000028
208.0 52.0 704.000028
208.0 53.0 704.000028
208.0 54.0 704.000028
208.0 55.0 704.000028
208.0 56.0 701.250028
208.0 57.0 701.250028
208.0 58.0 701.250028
208.0 59.0 701.250028
208.0 60.0 701.250028
208.0 61.0 701.250028
208.0 62.0 701.250028
208.0 63.0 698.521429
208.0 64.0 698.521429
208.0 65.0 698.521429
208.0 66.0 698.521429
208.0 67.0 698.521429
208.0 68.0 698.521429
208.0 69.0 698.521429
208.0 70.0 698.521429
208.0 71.0 698.521429
208.0 72.0 695.813981
208.0 73.0 695.813981
208.0 74.0 695.813981
208.0 75.0 695.813981
208.0 76.0 695.813981
208.0 77.0 695.813981
208.0 78.0 695.813981
208.0 79.0 695.813981
208.0 80.0 693.127441
208.0 81.0 693.127441
208.0 82.0 693.127441
208.0 83.0 693.127441
208.0 84.0 693.127441
208.0 85.0 693.127441
208.0 86.0 693.127441
208.0 87.0 693.127441
208.0 88.0 693.127441
208.0 89.0 690.461566
208.0 90.0 690.461566
208.0 91.0 690.461566
208.0 92.0 690.461566
208.0 93.0 690.461566
208.0 94.0 690.461566
208.0 95.0 690.461566
208.0 96.0 690.461566
208.0 97.0 690.461566
208.0 98.0 687.816119
208.0 99.0 687.816119
208.0 100.0 687.816119
208.0 101.0 687.816119
208.0 102.0 687.816119
208.0 103.0 687.816119
208.0 104.0 685.190867
208.0 105.0 685.190867
208.0 106.0 685.190867
208.0 107.0 685.190867
208.0 108.0 685.190867
208.0 109.0 685.190867
208.0 110.0 685.190867
208.0 111.0 682.585578
208.0 112.0 682.585578
208.0 113.0 682.585578
208.0 114.0 682.585578
208.0 115.0 682.585578
208.0 116.0 682.585578
208.0 117.0 680.000027
208.0 118.0 680.000027
208.0 119.0 680.000027
208.0 120.0 680.000027
208.0 121.0 677.433989
208.0 122.0 677.433989
208.0 123.0 677.433989
208.0 124.0 677.433989
208.0 125.0 677.433989
208.0 126.0 674.887245
208.0 127.0 674.887245
208.0 128.0 674.887245
208.0 129.0 674.887245
208.0 130.0 674.887245
208.0 131.0 674.887245
208.0 132.0 674.887245
208.0 133.0 672.359577
208.0 134.0 672.359577
208.0 135.0 672.359577
208.0 136.0 672.359577
208.0 137.0 672.359577
208.0 138.0 672.359577
208.0 139.0 672.359577
208.0 140.0 672.359577
208.0 141.0 672.359577
208.0 142.0 669.850773
208.0 143.0 669.850773
208.0 144.0 669.850773
208.0 145.0 669.850773
208.0 146.0 584.755724
208.0 147.0 582.857166
208.0 148.0 582.857166
208.0 149.0 582.857166
208.0 150.0 582.857166
208.0 151.0 582.857166
208.0 152.0 582.857166
208.0 153.0 582.857166
208.0 154.0 582.857166
208.0 155.0 582.857166
208.0 156.0 582.857166
208.0 157.0 582.857166
208.0 158.0 580.970897
208.0 159.0 580.970897
208.0 160.0 582.857166
208.0 161.0 582.857166
208.0 162.0 582.857166
208.0 163.0 582.857166
208.0 164.0 582.857166
208.0 165.0 582.857166
208.0 166.0 582.857166
208.0 167.0 582.857166
208.0 168.0 582.857166
208.0 169.0 582.857166
208.0 170.0 582.857166
208.0 171.0 582.857166
208.0 172.0 582.857166
208.0 173.0 584.755724
208.0 174.0 584.755724
208.0 175.0 584.755724
208.0 176.0 584.755724
208.0 177.0 584.755724
208.0 178.0 584.755724
208.0 179.0 584.755724
208.0 180.0 584.755724
208.0 181.0 584.755724
208.0 182.0 584.755724
208.0 183.0 584.755724
208.0 184.0 584.755724
208.0 185.0 584.755724
208.0 186.0 584.755724
208.0 187.0 584.755724
208.0 188.0 584.755724
208.0 189.0 584.755724
208.0 190.0 584.755724
208.0 191.0 586.66669
208.0 192.0 586.66669
208.0 193.0 586.66669
208.0 194.0 586.66669
208.0 195.0 586.66669
208.0 196.0 586.66669
208.0 197.0 586.66669
208.0 198.0 586.66669
208.0 199.0 586.66669
208.0 200.0 586.66669
208.0 201.0 586.66669
208.0 202.0 586.66669
208.0 203.0 586.66669
208.0 204.0 586.66669
208.0 205.0 586.66669
208.0 206.0 586.66669
208.0 207.0 586.66669
208.0 208.0 586.66669
208.0 209.0 586.66669
208.0 210.0 586.66669
208.0 211.0 586.66669
208.0 212.0 586.66669
208.0 213.0 584.755724
208.0 214.0 584.755724
208.0 215.0 584.755724
208.0 216.0 584.755724
208.0 217.0 584.755724
208.0 218.0 584.755724
208.0 219.0 584.755724
208.0 220.0 584.755724
208.0 221.0 582.857166
208.0 222.0 582.857166
208.0 223.0 582.857166
208.0 224.0 582.857166
208.0 225.0 582.857166
208.0 226.0 580.970897
208.0 227.0 580.970897
208.0 228.0 580.970897
208.0 229.0 580.970897
208.0 230.0 580.970897
208.0 231.0 580.970897
208.0 232.0 579.096797
208.0 233.0 579.096797
208.0 234.0 438.924223
208.0 235.0 440.000017
208.0 236.0 441.081099
208.0 237.0 441.081099
208.0 238.0 441.081099
208.0 239.0 442.167505
208.0 240.0 443.259277
208.0 241.0 444.356453
208.0 242.0 445.459075
208.0 243.0 446.567182
208.0 244.0 447.680816
208.0 245.0 449.92483
208.0 246.0 451.055294
208.0 247.0 453.333351
208.0 248.0 455.634536
208.0 249.0 457.959202
208.0 250.0 459.130453
208.0 251.0 463.875987
208.0 252.0 465.077739
208.0 253.0 467.500019
208.0 254.0 469.947663
208.0 256.0 481.286882
208.0 257.0 483.881421
208.0 258.0 486.504084
208.0 259.0 489.155333
208.0 260.0 490.491823
208.0 261.0 493.186833
208.0 262.0 494.545474
208.0 263.0 495.911622
208.0 264.0 498.666686
208.0 265.0 500.05573
208.0 266.0 501.452534
208.0 267.0 502.857163
208.0 268.0 504.269683
208.0 269.0 507.118664
208.0 270.0 508.555261
208.0 271.0 510.00002
209.0 0.0 726.801648
209.0 1.0 726.801648
209.0 2.0 726.801648
209.0 3.0 726.801648
209.0 4.0 726.801648
209.0 5.0 723.870997
209.0 6.0 723.870997
209.0 7.0 723.870997
209.0 8.0 723.870997
209.0 9.0 723.870997
209.0 10.0 723.870997
209.0 11.0 723.870997
209.0 12.0 720.963884
209.0 13.0 720.963884
209.0 14.0 720.963884
209.0 15.0 720.963884
209.0 16.0 720.963884
209.0 17.0 718.080029
209.0 18.0 718.080029
209.0 19.0 718.080029
209.0 20.0 718.080029
209.0 21.0 718.080029
209.0 22.0 715.219152
209.0 23.0 715.219152
209.0 24.0 715.219152
209.0 25.0 715.219152
209.0 26.0 715.219152
209.0 27.0 715.219152
209.0 28.0 712.380981
209.0 29.0 712.380981
209.0 30.0 712.380981
209.0 31.0 712.380981
209.0 32.0 712.380981
209.0 33.0 712.380981
209.0 34.0 709.565246
209.0 35.0 709.565246
209.0 36.0 709.565246
209.0 37.0 709.565246
209.0 38.0 709.565246
209.0 39.0 709.565246
209.0 40.0 706.771682
209.0 41.0 706.771682
209.0 42.0 706.771682
209.0 43.0 706.771682
209.0 44.0 706.771682
209.0 45.0 706.771682
209.0 46.0 706.771682
209.0 47.0 706.771682
209.0 48.0 706.771682
209.0 49.0 704.000028
209.0 50.0 704.000028
209.0 51.0 704.000028
209.0 52.0 704.000028
209.0 53.0 704.000028
209.0 54.0 704.000028
209.0 55.0 704.000028
209.0 56.0 701.250028
209.0 57.0 701.250028
209.0 58.0 701.250028
209.0 59.0 701.250028
209.0 60.0 701.250028
209.0 61.0 701.250028
209.0 62.0 701.250028
209.0 63.0 698.521429
209.0 64.0 698.521429
209.0 65.0 698.521429
209.0 66.0 698.521429
209.0 67.0 698.521429
209.0 68.0 698.521429
209.0 69.0 698.521429
209.0 70.0 698.521429
209.0 71.0 695.813981
209.0 72.0 695.813981
209.0 73.0 695.813981
209.0 74.0 695.813981
209.0 75.0 695.813981
209.0 76.0 695.813981
209.0 77.0 695.813981
209.0 78.0 695.813981
209.0 79.0 695.813981
209.0 80.0 695.813981
209.0 81.0 693.127441
209.0 82.0 693.127441
209.0 83.0 693.127441
209.0 84.0 693.127441
209.0 85.0 693.127441
209.0 86.0 693.127441
209.0 87.0 693.127441
209.0 88.0 690.461566
209.0 89.0 690.461566
209.0 90.0 690.461566
209.0 91.0 690.461566
209.0 92.0 690.461566
209.0 93.0 690.461566
209.0 94.0 690.461566
209.0 95.0 690.461566
209.0 96.0 690.461566
209.0 97.0 690.461566
209.0 98.0 687.816119
209.0 99.0 687.816119
209.0 100.0 687.816119
209.0 101.0 687.816119
209.0 102.0 687.816119
209.0 103.0 687.816119
209.0 104.0 687.816119
209.0 105.0 685.190867
209.0 106.0 685.190867
209.0 107.0 685.190867
209.0 108.0 685.190867
209.0 109.0 685.190867
209.0 110.0 685.190867
209.0 111.0 682.585578
209.0 112.0 682.585578
209.0 113.0 682.585578
209.0 114.0 682.585578
209.0 115.0 682.585578
209.0 116.0 680.000027
209.0 117.0 680.000027
209.0 118.0 680.000027
209.0 119.0 680.000027
209.0 120.0 680.000027
209.0 121.0 680.000027
209.0 122.0 677.433989
209.0 123.0 677.433989
209.0 124.0 677.433989
209.0 125.0 677.433989
209.0 126.0 677.433989
209.0 127.0 677.433989
209.0 128.0 674.887245
209.0 129.0 674.887245
209.0 130.0 674.887245
209.0 131.0 674.887245
209.0 132.0 674.887245
209.0 133.0 672.359577
209.0 134.0 672.359577
209.0 135.0 672.359577
209.0 136.0 672.359577
209.0 137.0 672.359577
209.0 138.0 672.359577
209.0 139.0 672.359577
209.0 140.0 672.359577
209.0 141.0 672.359577
209.0 142.0 669.850773
209.0 143.0 669.850773
209.0 144.0 669.850773
209.0 145.0 669.850773
209.0 146.0 669.850773
209.0 147.0 669.850773
209.0 148.0 669.850773
209.0 149.0 584.755724
209.0 150.0 584.755724
209.0 151.0 582.857166
209.0 152.0 582.857166
209.0 153.0 582.857166
209.0 154.0 582.857166
209.0 155.0 582.857166
209.0 156.0 582.857166
209.0 157.0 582.857166
209.0 158.0 580.970897
209.0 159.0 580.970897
209.0 160.0 580.970897
209.0 161.0 582.857166
209.0 162.0 582.857166
209.0 163.0 582.857166
209.0 164.0 582.857166
209.0 165.0 582.857166
209.0 166.0 582.857166
209.0 167.0 582.857166
209.0 168.0 582.857166
209.0 169.0 582.857166
209.0 170.0 582.857166
209.0 171.0 582.857166
209.0 172.0 582.857166
209.0 173.0 582.857166
209.0 174.0 582.857166
209.0 175.0 582.857166
209.0 176.0 582.857166
209.0 177.0 582.857166
209.0 178.0 582.857166
209.0 179.0 582.857166
209.0 180.0 582.857166
209.0 181.0 584.755724
209.0 182.0 584.755724
209.0 183.0 584.755724
209.0 184.0 584.755724
209.0 185.0 584.755724
209.0 186.0 584.755724
209.0 187.0 584.755724
209.0 188.0 584.755724
209.0 189.0 584.755724
209.0 190.0 584.755724
209.0 191.0 584.755724
209.0 192.0 584.755724
209.0 193.0 584.755724
209.0 194.0 584.755724
209.0 195.0 584.755724
209.0 196.0 584.755724
209.0 197.0 584.755724
209.0 198.0 584.755724
209.0 199.0 584.755724
209.0 200.0 584.755724
209.0 201.0 584.755724
209.0 202.0 584.755724
209.0 203.0 584.755724
209.0 204.0 584.755724
209.0 205.0 584.755724
209.0 206.0 584.755724
209.0 207.0 584.755724
209.0 208.0 584.755724
209.0 209.0 584.755724
209.0 210.0 584.755724
209.0 211.0 584.755724
209.0 212.0 584.755724
209.0 213.0 582.857166
209.0 214.0 582.857166
209.0 215.0 582.857166
209.0 216.0 582.857166
209.0 217.0 582.857166
209.0 218.0 582.857166
209.0 219.0 582.857166
209.0 220.0 582.857166
209.0 221.0 580.970897
209.0 222.0 580.970897
209.0 223.0 580.970897
209.0 224.0 580.970897
209.0 225.0 580.970897
209.0 226.0 580.970897
209.0 227.0 580.970897
209.0 228.0 579.096797
209.0 229.0 579.096797
209.0 230.0 579.096797
209.0 231.0 579.096797
209.0 232.0 579.096797
209.0 233.0 438.924223
209.0 234.0 438.924223
209.0 235.0 440.000017
209.0 236.0 440.000017
209.0 237.0 441.081099
209.0 238.0 441.081099
209.0 239.0 442.167505
209.0 240.0 443.259277
209.0 241.0 444.356453
209.0 242.0 445.459075
209.0 243.0 446.567182
209.0 244.0 448.800018
209.0 245.0 451.055294
209.0 246.0 452.191454
209.0 247.0 456.793911
209.0 248.0 457.959202
209.0 249.0 460.307711
209.0 251.0 465.077739
209.0 254.0 481.286882
209.0 255.0 482.580664
209.0 256.0 483.881421
209.0 257.0 486.504084
209.0 258.0 489.155333
209.0 259.0 491.835636
209.0 260.0 493.186833
209.0 261.0 494.545474
209.0 262.0 495.911622
209.0 263.0 497.285338
209.0 264.0 498.666686
209.0 265.0 501.452534
209.0 266.0 502.857163
209.0 267.0 504.269683
209.0 268.0 505.690161
209.0 269.0 507.118664
209.0 270.0 508.555261
209.0 271.0 510.00002
210.0 0.0 726.801648
210.0 1.0 726.801648
210.0 2.0 726.801648
210.0 3.0 726.801648
210.0 4.0 726.801648
210.0 5.0 723.870997
210.0 6.0 723.870997
210.0 7.0 723.870997
210.0 8.0 723.870997
210.0 9.0 723.870997
210.0 10.0 723.870997
210.0 11.0 723.870997
210.0 12.0 720.963884
210.0 13.0 720.963884
210.0 14.0 720.963884
210.0 15.0 720.963884
210.0 16.0 720.963884
210.0 17.0 718.080029
210.0 18.0 718.080029
210.0 19.0 718.080029
210.0 20.0 718.080029
210.0 21.0 718.080029
210.0 22.0 715.219152
210.0 23.0 715.219152
210.0 24.0 715.219152
210.0 25.0 715.219152
210.0 26.0 715.219152
210.0 27.0 715.219152
210.0 28.0 715.219152
210.0 29.0 712.380981
210.0 30.0 712.380981
210.0 31.0 712.380981
210.0 32.0 712.380981
210.0 33.0 712.380981
210.0 34.0 712.380981
210.0 35.0 709.565246
210.0 36.0 709.565246
210.0 37.0 709.565246
210.0 38.0 709.565246
210.0 39.0 709.565246
210.0 40.0 706.771682
210.0 41.0 706.771682
210.0 42.0 706.771682
210.0 43.0 706.771682
210.0 44.0 706.771682
210.0 45.0 706.771682
210.0 46.0 706.771682
210.0 47.0 706.771682
210.0 48.0 706.771682
210.0 49.0 704.000028
210.0 50.0 704.000028
210.0 51.0 704.000028
210.0 52.0 704.000028
210.0 53.0 704.000028
210.0 54.0 704.000028
210.0 55.0 704.000028
210.0 56.0 701.250028
210.0 57.0 701.250028
210.0 58.0 701.250028
210.0 59.0 701.250028
210.0 60.0 701.250028
210.0 61.0 701.250028
210.0 62.0 701.250028
210.0 63.0 698.521429
210.0 64.0 698.521429
210.0 65.0 698.521429
210.0 66.0 698.521429
210.0 67.0 698.521429
210.0 68.0 698.521429
210.0 69.0 698.521429
210.0 70.0 698.521429
210.0 71.0 695.813981
210.0 72.0 695.813981
210.0 73.0 695.813981
210.0 74.0 695.813981
210.0 75.0 695.813981
210.0 76.0 695.813981
210.0 77.0 695.813981
210.0 78.0 695.813981
210.0 79.0 695.813981
210.0 80.0 695.813981
210.0 81.0 693.127441
210.0 82.0 693.127441
210.0 83.0 693.127441
210.0 84.0 693.127441
210.0 85.0 693.127441
210.0 86.0 693.127441
210.0 87.0 693.127441
210.0 88.0 690.461566
210.0 89.0 690.461566
210.0 90.0 690.461566
210.0 91.0 690.461566
210.0 92.0 690.461566
210.0 93.0 690.461566
210.0 94.0 690.461566
210.0 95.0 690.461566
210.0 96.0 690.461566
210.0 97.0 690.461566
210.0 98.0 687.816119
210.0 99.0 687.816119
210.0 100.0 687.816119
210.0 101.0 687.816119
210.0 102.0 687.816119
210.0 103.0 687.816119
210.0 104.0 687.816119
210.0 105.0 685.190867
210.0 106.0 685.190867
210.0 107.0 685.190867
210.0 108.0 685.190867
210.0 109.0 685.190867
210.0 110.0 685.190867
210.0 111.0 682.585578
210.0 112.0 682.585578
210.0 113.0 682.585578
210.0 114.0 682.585578
210.0 115.0 682.585578
210.0 116.0 682.585578
210.0 117.0 682.585578
210.0 118.0 680.000027
210.0 119.0 680.000027
210.0 120.0 680.000027
210.0 121.0 677.433989
210.0 122.0 677.433989
210.0 123.0 677.433989
210.0 124.0 677.433989
210.0 125.0 677.433989
210.0 126.0 677.433989
210.0 127.0 674.887245
210.0 128.0 674.887245
210.0 129.0 674.887245
210.0 130.0 674.887245
210.0 131.0 674.887245
210.0 132.0 674.887245
210.0 133.0 674.887245
210.0 134.0 672.359577
210.0 135.0 672.359577
210.0 136.0 672.359577
210.0 137.0 672.359577
210.0 138.0 672.359577
210.0 139.0 672.359577
210.0 140.0 672.359577
210.0 141.0 672.359577
210.0 142.0 672.359577
210.0 143.0 669.850773
210.0 144.0 669.850773
210.0 145.0 669.850773
210.0 146.0 669.850773
210.0 147.0 669.850773
210.0 148.0 669.850773
210.0 149.0 669.850773
210.0 150.0 669.850773
210.0 151.0 667.360621
210.0 152.0 667.360621
210.0 153.0 584.755724
210.0 154.0 582.857166
210.0 155.0 582.857166
210.0 156.0 582.857166
210.0 157.0 582.857166
210.0 158.0 582.857166
210.0 159.0 582.857166
210.0 160.0 582.857166
210.0 161.0 582.857166
210.0 162.0 582.857166
210.0 163.0 582.857166
210.0 164.0 582.857166
210.0 165.0 582.857166
210.0 166.0 582.857166
210.0 167.0 582.857166
210.0 168.0 582.857166
210.0 169.0 582.857166
210.0 170.0 582.857166
210.0 171.0 582.857166
210.0 172.0 582.857166
210.0 173.0 582.857166
210.0 174.0 582.857166
210.0 175.0 582.857166
210.0 176.0 582.857166
210.0 177.0 582.857166
210.0 178.0 582.857166
210.0 179.0 582.857166
210.0 180.0 582.857166
210.0 181.0 582.857166
210.0 182.0 582.857166
210.0 183.0 582.857166
210.0 184.0 582.857166
210.0 185.0 582.857166
210.0 186.0 582.857166
210.0 187.0 582.857166
210.0 188.0 582.857166
210.0 189.0 582.857166
210.0 190.0 582.857166
210.0 191.0 582.857166
210.0 192.0 582.857166
210.0 193.0 582.857166
210.0 194.0 582.857166
210.0 195.0 582.857166
210.0 196.0 582.857166
210.0 197.0 582.857166
210.0 198.0 582.857166
210.0 199.0 582.857166
210.0 200.0 582.857166
210.0 201.0 582.857166
210.0 202.0 582.857166
210.0 203.0 582.857166
210.0 204.0 582.857166
210.0 205.0 582.857166
210.0 206.0 582.857166
210.0 207.0 582.857166
210.0 208.0 582.857166
210.0 209.0 582.857166
210.0 210.0 582.857166
210.0 211.0 582.857166
210.0 212.0 582.857166
210.0 213.0 582.857166
210.0 214.0 582.857166
210.0 215.0 580.970897
210.0 216.0 580.970897
210.0 217.0 580.970897
210.0 218.0 580.970897
210.0 219.0 580.970897
210.0 220.0 580.970897
210.0 221.0 580.970897
210.0 222.0 580.970897
210.0 223.0 580.970897
210.0 224.0 580.970897
210.0 225.0 580.970897
210.0 226.0 579.096797
210.0 227.0 579.096797
210.0 228.0 579.096797
210.0 229.0 579.096797
210.0 230.0 579.096797
210.0 231.0 579.096797
210.0 232.0 438.924223
210.0 233.0 438.924223
210.0 234.0 438.924223
210.0 235.0 438.924223
210.0 236.0 440.000017
210.0 237.0 441.081099
210.0 238.0 441.081099
210.0 239.0 442.167505
210.0 240.0 443.259277
210.0 241.0 444.356453
210.0 242.0 446.567182
210.0 243.0 448.800018
210.0 244.0 451.055294
210.0 245.0 483.881421
210.0 254.0 482.580664
210.0 255.0 483.881421
210.0 256.0 486.504084
210.0 257.0 489.155333
210.0 258.0 491.835636
210.0 259.0 493.186833
210.0 260.0 494.545474
210.0 261.0 495.911622
210.0 262.0 497.285338
210.0 263.0 500.05573
210.0 264.0 501.452534
210.0 265.0 502.857163
210.0 266.0 504.269683
210.0 267.0 505.690161
210.0 268.0 507.118664
210.0 269.0 508.555261
210.0 270.0 510.00002
210.0 271.0 511.453012
211.0 0.0 726.801648
211.0 1.0 726.801648
211.0 2.0 726.801648
211.0 3.0 726.801648
211.0 4.0 726.801648
211.0 5.0 723.870997
211.0 6.0 723.870997
211.0 7.0 723.870997
211.0 8.0 723.870997
211.0 9.0 723.870997
211.0 10.0 723.870997
211.0 11.0 723.870997
211.0 12.0 720.963884
211.0 13.0 720.963884
211.0 14.0 720.963884
211.0 15.0 720.963884
211.0 16.0 720.963884
211.0 17.0 718.080029
211.0 18.0 718.080029
211.0 19.0 718.080029
211.0 20.0 718.080029
211.0 21.0 718.080029
211.0 22.0 718.080029
211.0 23.0 715.219152
211.0 24.0 715.219152
211.0 25.0 715.219152
211.0 26.0 715.219152
211.0 27.0 715.219152
211.0 28.0 715.219152
211.0 29.0 712.380981
211.0 30.0 712.380981
211.0 31.0 712.380981
211.0 32.0 712.380981
211.0 33.0 712.380981
211.0 34.0 712.380981
211.0 35.0 709.565246
211.0 36.0 709.565246
211.0 37.0 709.565246
211.0 38.0 709.565246
211.0 39.0 709.565246
211.0 40.0 706.771682
211.0 41.0 706.771682
211.0 42.0 706.771682
211.0 43.0 706.771682
211.0 44.0 706.771682
211.0 45.0 706.771682
211.0 46.0 706.771682
211.0 47.0 706.771682
211.0 48.0 706.771682
211.0 49.0 704.000028
211.0 50.0 704.000028
211.0 51.0 704.000028
211.0 52.0 704.000028
211.0 53.0 704.000028
211.0 54.0 704.000028
211.0 55.0 704.000028
211.0 56.0 701.250028
211.0 57.0 701.250028
211.0 58.0 701.250028
211.0 59.0 701.250028
211.0 60.0 701.250028
211.0 61.0 701.250028
211.0 62.0 701.250028
211.0 63.0 698.521429
211.0 64.0 698.521429
211.0 65.0 698.521429
211.0 66.0 698.521429
211.0 67.0 698.521429
211.0 68.0 698.521429
211.0 69.0 698.521429
211.0 70.0 698.521429
211.0 71.0 695.813981
211.0 72.0 695.813981
211.0 73.0 695.813981
211.0 74.0 695.813981
211.0 75.0 695.813981
211.0 76.0 695.813981
211.0 77.0 695.813981
211.0 78.0 695.813981
211.0 79.0 695.813981
211.0 80.0 695.813981
211.0 81.0 693.127441
211.0 82.0 693.127441
211.0 83.0 693.127441
211.0 84.0 693.127441
211.0 85.0 693.127441
211.0 86.0 693.127441
211.0 87.0 690.461566
211.0 88.0 690.461566
211.0 89.0 690.461566
211.0 90.0 690.461566
211.0 91.0 690.461566
211.0 92.0 690.461566
211.0 93.0 690.461566
211.0 94.0 690.461566
211.0 95.0 690.461566
211.0 96.0 690.461566
211.0 97.0 690.461566
211.0 98.0 687.816119
211.0 99.0 687.816119
211.0 100.0 687.816119
211.0 101.0 687.816119
211.0 102.0 687.816119
211.0 103.0 687.816119
211.0 104.0 687.816119
211.0 105.0 685.190867
211.0 106.0 685.190867
211.0 107.0 685.190867
211.0 108.0 685.190867
211.0 109.0 685.190867
211.0 110.0 685.190867
211.0 111.0 682.585578
211.0 112.0 682.585578
211.0 113.0 682.585578
211.0 114.0 682.585578
211.0 115.0 682.585578
211.0 116.0 682.585578
211.0 117.0 680.000027
211.0 118.0 680.000027
211.0 119.0 680.000027
211.0 120.0 680.000027
211.0 121.0 680.000027
211.0 122.0 677.433989
211.0 123.0 677.433989
211.0 124.0 677.433989
211.0 125.0 677.433989
211.0 126.0 677.433989
211.0 127.0 677.433989
211.0 128.0 677.433989
211.0 129.0 674.887245
211.0 130.0 674.887245
211.0 131.0 674.887245
211.0 132.0 674.887245
211.0 133.0 674.887245
211.0 134.0 672.359577
211.0 135.0 672.359577
211.0 136.0 672.359577
211.0 137.0 672.359577
211.0 138.0 672.359577
211.0 139.0 672.359577
211.0 140.0 672.359577
211.0 141.0 672.359577
211.0 142.0 672.359577
211.0 143.0 669.850773
211.0 144.0 669.850773
211.0 145.0 669.850773
211.0 146.0 669.850773
211.0 147.0 669.850773
211.0 148.0 669.850773
211.0 149.0 669.850773
211.0 150.0 669.850773
211.0 151.0 667.360621
211.0 152.0 667.360621
211.0 153.0 667.360621
211.0 154.0 667.360621
211.0 155.0 667.360621
211.0 156.0 667.360621
211.0 157.0 584.755724
211.0 158.0 582.857166
211.0 159.0 582.857166
211.0 160.0 582.857166
211.0 161.0 582.857166
211.0 162.0 582.857166
211.0 163.0 582.857166
211.0 164.0 582.857166
211.0 165.0 582.857166
211.0 166.0 582.857166
211.0 167.0 582.857166
211.0 168.0 580.970897
211.0 169.0 580.970897
211.0 170.0 580.970897
211.0 171.0 580.970897
211.0 172.0 582.857166
211.0 173.0 582.857166
211.0 174.0 582.857166
211.0 175.0 582.857166
211.0 176.0 582.857166
211.0 177.0 582.857166
211.0 178.0 582.857166
211.0 179.0 582.857166
211.0 180.0 582.857166
211.0 181.0 582.857166
211.0 182.0 582.857166
211.0 183.0 582.857166
211.0 184.0 582.857166
211.0 185.0 582.857166
211.0 186.0 582.857166
211.0 187.0 582.857166
211.0 188.0 582.857166
211.0 189.0 582.857166
211.0 190.0 582.857166
211.0 191.0 582.857166
211.0 192.0 582.857166
211.0 193.0 582.857166
211.0 194.0 582.857166
211.0 195.0 582.857166
211.0 196.0 582.857166
211.0 197.0 582.857166
211.0 198.0 582.857166
211.0 199.0 582.857166
211.0 200.0 582.857166
211.0 201.0 582.857166
211.0 202.0 582.857166
211.0 203.0 582.857166
211.0 204.0 582.857166
211.0 205.0 582.857166
211.0 206.0 582.857166
211.0 207.0 582.857166
211.0 208.0 582.857166
211.0 209.0 580.970897
211.0 210.0 580.970897
211.0 211.0 580.970897
211.0 212.0 580.970897
211.0 213.0 580.970897
211.0 214.0 580.970897
211.0 215.0 580.970897
211.0 216.0 580.970897
211.0 217.0 580.970897
211.0 218.0 580.970897
211.0 219.0 580.970897
211.0 220.0 580.970897
211.0 221.0 579.096797
211.0 222.0 580.970897
211.0 223.0 580.970897
211.0 224.0 579.096797
211.0 225.0 579.096797
211.0 226.0 579.096797
211.0 227.0 579.096797
211.0 228.0 579.096797
211.0 229.0 579.096797
211.0 230.0 579.096797
211.0 231.0 437.853676
211.0 232.0 437.853676
211.0 233.0 437.853676
211.0 234.0 438.924223
211.0 235.0 438.924223
211.0 236.0 440.000017
211.0 237.0 441.081099
211.0 238.0 442.167505
211.0 239.0 442.167505
211.0 240.0 444.356453
211.0 241.0 446.567182
211.0 242.0 494.545474
211.0 243.0 490.491823
211.0 244.0 487.826106
211.0 245.0 485.189208
211.0 246.0 486.504084
211.0 252.0 485.189208
211.0 253.0 483.881421
211.0 254.0 485.189208
211.0 255.0 487.826106
211.0 256.0 489.155333
211.0 257.0 493.186833
211.0 258.0 493.186833
211.0 259.0 494.545474
211.0 260.0 497.285338
211.0 261.0 497.285338
211.0 262.0 498.666686
211.0 263.0 501.452534
211.0 264.0 502.857163
211.0 265.0 504.269683
211.0 266.0 505.690161
211.0 267.0 507.118664
211.0 268.0 508.555261
211.0 269.0 510.00002
211.0 270.0 511.453012
211.0 271.0 511.453012
212.0 0.0 729.756127
212.0 1.0 726.801648
212.0 2.0 726.801648
212.0 3.0 726.801648
212.0 4.0 726.801648
212.0 5.0 723.870997
212.0 6.0 723.870997
212.0 7.0 723.870997
212.0 8.0 723.870997
212.0 9.0 723.870997
212.0 10.0 723.870997
212.0 11.0 720.963884
212.0 12.0 720.963884
212.0 13.0 720.963884
212.0 14.0 720.963884
212.0 15.0 720.963884
212.0 16.0 720.963884
212.0 17.0 718.080029
212.0 18.0 718.080029
212.0 19.0 718.080029
212.0 20.0 718.080029
212.0 21.0 718.080029
212.0 22.0 718.080029
212.0 23.0 715.219152
212.0 24.0 715.219152
212.0 25.0 715.219152
212.0 26.0 715.219152
212.0 27.0 715.219152
212.0 28.0 715.219152
212.0 29.0 712.380981
212.0 30.0 712.380981
212.0 31.0 712.380981
212.0 32.0 712.380981
212.0 33.0 712.380981
212.0 34.0 712.380981
212.0 35.0 709.565246
212.0 36.0 709.565246
212.0 37.0 709.565246
212.0 38.0 709.565246
212.0 39.0 709.565246
212.0 40.0 706.771682
212.0 41.0 706.771682
212.0 42.0 706.771682
212.0 43.0 706.771682
212.0 44.0 706.771682
212.0 45.0 706.771682
212.0 46.0 706.771682
212.0 47.0 706.771682
212.0 48.0 706.771682
212.0 49.0 704.000028
212.0 50.0 704.000028
212.0 51.0 704.000028
212.0 52.0 704.000028
212.0 53.0 704.000028
212.0 54.0 704.000028
212.0 55.0 704.000028
212.0 56.0 701.250028
212.0 57.0 701.250028
212.0 58.0 701.250028
212.0 59.0 701.250028
212.0 60.0 701.250028
212.0 61.0 701.250028
212.0 62.0 701.250028
212.0 63.0 698.521429
212.0 64.0 698.521429
212.0 65.0 698.521429
212.0 66.0 698.521429
212.0 67.0 698.521429
212.0 68.0 698.521429
212.0 69.0 698.521429
212.0 70.0 698.521429
212.0 71.0 695.813981
212.0 72.0 695.813981
212.0 73.0 695.813981
212.0 74.0 695.813981
212.0 75.0 695.813981
212.0 76.0 695.813981
212.0 77.0 695.813981
212.0 78.0 695.813981
212.0 79.0 695.813981
212.0 80.0 693.127441
212.0 81.0 693.127441
212.0 82.0 693.127441
212.0 83.0 693.127441
212.0 84.0 693.127441
212.0 85.0 693.127441
212.0 86.0 693.127441
212.0 87.0 693.127441
212.0 88.0 690.461566
212.0 89.0 690.461566
212.0 90.0 690.461566
212.0 91.0 690.461566
212.0 92.0 690.461566
212.0 93.0 690.461566
212.0 94.0 690.461566
212.0 95.0 690.461566
212.0 96.0 690.461566
212.0 97.0 687.816119
212.0 98.0 687.816119
212.0 99.0 687.816119
212.0 100.0 687.816119
212.0 101.0 687.816119
212.0 102.0 687.816119
212.0 103.0 687.816119
212.0 104.0 685.190867
212.0 105.0 685.190867
212.0 106.0 685.190867
212.0 107.0 685.190867
212.0 108.0 685.190867
212.0 109.0 685.190867
212.0 110.0 685.190867
212.0 111.0 682.585578
212.0 112.0 682.585578
212.0 113.0 682.585578
212.0 114.0 682.585578
212.0 115.0 682.585578
212.0 116.0 682.585578
212.0 117.0 682.585578
212.0 118.0 682.585578
212.0 119.0 682.585578
212.0 120.0 680.000027
212.0 121.0 680.000027
212.0 124.0 677.433989
212.0 125.0 677.433989
212.0 126.0 677.433989
212.0 127.0 677.433989
212.0 128.0 677.433989
212.0 129.0 674.887245
212.0 130.0 674.887245
212.0 131.0 674.887245
212.0 132.0 674.887245
212.0 133.0 674.887245
212.0 134.0 672.359577
212.0 135.0 672.359577
212.0 136.0 672.359577
212.0 137.0 672.359577
212.0 138.0 672.359577
212.0 139.0 672.359577
212.0 140.0 672.359577
212.0 141.0 672.359577
212.0 142.0 672.359577
212.0 143.0 672.359577
212.0 144.0 669.850773
212.0 145.0 669.850773
212.0 146.0 669.850773
212.0 147.0 669.850773
212.0 148.0 669.850773
212.0 149.0 669.850773
212.0 150.0 669.850773
212.0 151.0 667.360621
212.0 152.0 667.360621
212.0 153.0 667.360621
212.0 154.0 667.360621
212.0 155.0 667.360621
212.0 156.0 667.360621
212.0 157.0 667.360621
212.0 158.0 667.360621
212.0 159.0 667.360621
212.0 160.0 584.755724
212.0 161.0 582.857166
212.0 162.0 582.857166
212.0 163.0 582.857166
212.0 164.0 582.857166
212.0 165.0 582.857166
212.0 166.0 582.857166
212.0 167.0 582.857166
212.0 168.0 582.857166
212.0 169.0 580.970897
212.0 170.0 580.970897
212.0 171.0 580.970897
212.0 172.0 580.970897
212.0 173.0 582.857166
212.0 174.0 582.857166
212.0 175.0 582.857166
212.0 176.0 582.857166
212.0 177.0 582.857166
212.0 178.0 580.970897
212.0 179.0 580.970897
212.0 180.0 580.970897
212.0 181.0 580.970897
212.0 182.0 580.970897
212.0 183.0 580.970897
212.0 184.0 580.970897
212.0 185.0 582.857166
212.0 186.0 582.857166
212.0 187.0 582.857166
212.0 188.0 582.857166
212.0 189.0 582.857166
212.0 190.0 582.857166
212.0 191.0 582.857166
212.0 192.0 580.970897
212.0 193.0 580.970897
212.0 194.0 582.857166
212.0 195.0 580.970897
212.0 196.0 580.970897
212.0 197.0 582.857166
212.0 198.0 580.970897
212.0 199.0 580.970897
212.0 200.0 580.970897
212.0 201.0 580.970897
212.0 202.0 580.970897
212.0 203.0 580.970897
212.0 204.0 580.970897
212.0 205.0 580.970897
212.0 206.0 580.970897
212.0 207.0 580.970897
212.0 208.0 580.970897
212.0 209.0 580.970897
212.0 210.0 580.970897
212.0 211.0 580.970897
212.0 212.0 580.970897
212.0 213.0 580.970897
212.0 214.0 580.970897
212.0 215.0 580.970897
212.0 216.0 580.970897
212.0 217.0 580.970897
212.0 218.0 580.970897
212.0 219.0 580.970897
212.0 220.0 579.096797
212.0 221.0 579.096797
212.0 222.0 579.096797
212.0 223.0 579.096797
212.0 224.0 580.970897
212.0 225.0 579.096797
212.0 226.0 580.970897
212.0 227.0 580.970897
212.0 228.0 580.970897
212.0 229.0 579.096797
212.0 230.0 436.788339
212.0 231.0 436.788339
212.0 232.0 437.853676
212.0 233.0 437.853676
212.0 234.0 438.924223
212.0 235.0 440.000017
212.0 236.0 441.081099
212.0 237.0 441.081099
212.0 238.0 442.167505
212.0 239.0 580.970897
212.0 240.0 505.690161
212.0 241.0 501.452534
212.0 242.0 497.285338
212.0 243.0 494.545474
212.0 244.0 491.835636
212.0 245.0 489.155333
212.0 252.0 487.826106
212.0 253.0 489.155333
212.0 254.0 491.835636
212.0 255.0 491.835636
212.0 256.0 493.186833
212.0 257.0 494.545474
212.0 258.0 495.911622
212.0 259.0 497.285338
212.0 260.0 498.666686
212.0 261.0 500.05573
212.0 262.0 501.452534
212.0 263.0 502.857163
212.0 264.0 504.269683
212.0 265.0 505.690161
212.0 266.0 507.118664
212.0 267.0 508.555261
212.0 268.0 508.555261
212.0 269.0 510.00002
212.0 270.0 511.453012
212.0 271.0 512.914306
213.0 0.0 729.756127
213.0 1.0 726.801648
213.0 2.0 726.801648
213.0 3.0 726.801648
213.0 4.0 726.801648
213.0 5.0 723.870997
213.0 6.0 723.870997
213.0 7.0 723.870997
213.0 8.0 723.870997
213.0 9.0 723.870997
213.0 10.0 723.870997
213.0 11.0 720.963884
213.0 12.0 720.963884
213.0 13.0 720.963884
213.0 14.0 720.963884
213.0 15.0 720.963884
213.0 16.0 720.963884
213.0 17.0 718.080029
213.0 18.0 718.080029
213.0 19.0 718.080029
213.0 20.0 718.080029
213.0 21.0 718.080029
213.0 22.0 718.080029
213.0 23.0 715.219152
213.0 24.0 715.219152
213.0 25.0 715.219152
213.0 26.0 715.219152
213.0 27.0 715.219152
213.0 28.0 715.219152
213.0 29.0 712.380981
213.0 30.0 712.380981
213.0 31.0 712.380981
213.0 32.0 712.380981
213.0 33.0 712.380981
213.0 34.0 712.380981
213.0 35.0 709.565246
213.0 36.0 709.565246
213.0 37.0 709.565246
213.0 38.0 709.565246
213.0 39.0 709.565246
213.0 40.0 709.565246
213.0 41.0 706.771682
213.0 42.0 706.771682
213.0 43.0 706.771682
213.0 44.0 706.771682
213.0 45.0 706.771682
213.0 46.0 706.771682
213.0 47.0 706.771682
213.0 48.0 706.771682
213.0 49.0 704.000028
213.0 50.0 704.000028
213.0 51.0 704.000028
213.0 52.0 704.000028
213.0 53.0 704.000028
213.0 54.0 704.000028
213.0 55.0 704.000028
213.0 56.0 701.250028
213.0 57.0 701.250028
213.0 58.0 701.250028
213.0 59.0 701.250028
213.0 60.0 701.250028
213.0 61.0 701.250028
213.0 62.0 701.250028
213.0 63.0 698.521429
213.0 64.0 698.521429
213.0 65.0 698.521429
213.0 66.0 698.521429
213.0 67.0 698.521429
213.0 68.0 698.521429
213.0 69.0 698.521429
213.0 70.0 698.521429
213.0 71.0 695.813981
213.0 72.0 695.813981
213.0 73.0 695.813981
213.0 74.0 695.813981
213.0 75.0 695.813981
213.0 76.0 695.813981
213.0 77.0 695.813981
213.0 78.0 695.813981
213.0 79.0 695.813981
213.0 80.0 693.127441
213.0 81.0 693.127441
213.0 82.0 693.127441
213.0 83.0 693.127441
213.0 84.0 693.127441
213.0 85.0 693.127441
213.0 86.0 693.127441
213.0 87.0 693.127441
213.0 88.0 690.461566
213.0 89.0 690.461566
213.0 90.0 690.461566
213.0 91.0 690.461566
213.0 92.0 690.461566
213.0 93.0 690.461566
213.0 94.0 690.461566
213.0 95.0 690.461566
213.0 96.0 690.461566
213.0 97.0 687.816119
213.0 98.0 687.816119
213.0 99.0 687.816119
213.0 100.0 687.816119
213.0 101.0 687.816119
213.0 102.0 687.816119
213.0 103.0 687.816119
213.0 104.0 685.190867
213.0 105.0 685.190867
213.0 106.0 685.190867
213.0 107.0 685.190867
213.0 108.0 685.190867
213.0 109.0 685.190867
213.0 110.0 685.190867
213.0 111.0 682.585578
213.0 112.0 682.585578
213.0 113.0 682.585578
213.0 114.0 682.585578
213.0 115.0 682.585578
213.0 116.0 682.585578
213.0 117.0 682.585578
213.0 118.0 680.000027
213.0 119.0 680.000027
213.0 120.0 680.000027
213.0 121.0 680.000027
213.0 126.0 629.894762
213.0 127.0 629.894762
213.0 128.0 677.433989
213.0 129.0 674.887245
213.0 130.0 674.887245
213.0 131.0 674.887245
213.0 132.0 674.887245
213.0 133.0 629.894762
213.0 134.0 629.894762
213.0 135.0 629.894762
213.0 136.0 629.894762
213.0 137.0 629.894762
213.0 138.0 629.894762
213.0 139.0 629.894762
213.0 140.0 629.894762
213.0 141.0 672.359577
213.0 142.0 672.359577
213.0 143.0 669.850773
213.0 144.0 669.850773
213.0 145.0 669.850773
213.0 146.0 669.850773
213.0 150.0 669.850773
213.0 151.0 669.850773
213.0 152.0 667.360621
213.0 153.0 667.360621
213.0 154.0 667.360621
213.0 155.0 667.360621
213.0 156.0 667.360621
213.0 157.0 667.360621
213.0 158.0 667.360621
213.0 159.0 667.360621
213.0 162.0 667.360621
213.0 163.0 667.360621
213.0 164.0 667.360621
213.0 165.0 664.888915
213.0 166.0 584.755724
213.0 167.0 582.857166
213.0 168.0 582.857166
213.0 169.0 582.857166
213.0 170.0 582.857166
213.0 171.0 582.857166
213.0 172.0 582.857166
213.0 173.0 582.857166
213.0 174.0 582.857166
213.0 175.0 582.857166
213.0 176.0 582.857166
213.0 177.0 580.970897
213.0 178.0 580.970897
213.0 179.0 580.970897
213.0 180.0 580.970897
213.0 181.0 580.970897
213.0 182.0 580.970897
213.0 183.0 580.970897
213.0 184.0 580.970897
213.0 185.0 582.857166
213.0 186.0 582.857166
213.0 187.0 580.970897
213.0 188.0 580.970897
213.0 189.0 580.970897
213.0 190.0 580.970897
213.0 191.0 580.970897
213.0 192.0 580.970897
213.0 193.0 580.970897
213.0 194.0 580.970897
213.0 195.0 580.970897
213.0 196.0 580.970897
213.0 197.0 580.970897
213.0 198.0 580.970897
213.0 199.0 580.970897
213.0 200.0 580.970897
213.0 201.0 580.970897
213.0 202.0 580.970897
213.0 203.0 580.970897
213.0 204.0 580.970897
213.0 205.0 580.970897
213.0 206.0 580.970897
213.0 207.0 580.970897
213.0 208.0 580.970897
213.0 209.0 580.970897
213.0 210.0 580.970897
213.0 211.0 580.970897
213.0 212.0 580.970897
213.0 213.0 580.970897
213.0 214.0 580.970897
213.0 215.0 580.970897
213.0 216.0 580.970897
213.0 217.0 580.970897
213.0 218.0 580.970897
213.0 219.0 580.970897
213.0 220.0 580.970897
213.0 221.0 580.970897
213.0 222.0 580.970897
213.0 223.0 580.970897
213.0 224.0 580.970897
213.0 225.0 580.970897
213.0 226.0 580.970897
213.0 227.0 580.970897
213.0 228.0 580.970897
213.0 229.0 580.970897
213.0 230.0 436.788339
213.0 231.0 437.853676
213.0 232.0 437.853676
213.0 233.0 437.853676
213.0 234.0 438.924223
213.0 235.0 582.857166
213.0 236.0 441.081099
213.0 237.0 441.081099
213.0 238.0 580.970897
213.0 239.0 580.970897
213.0 240.0 508.555261
213.0 241.0 505.690161
213.0 242.0 501.452534
213.0 243.0 497.285338
213.0 244.0 497.285338
213.0 245.0 495.911622
213.0 252.0 490.491823
213.0 253.0 491.835636
213.0 254.0 493.186833
213.0 255.0 494.545474
213.0 256.0 495.911622
213.0 257.0 495.911622
213.0 258.0 497.285338
213.0 259.0 498.666686
213.0 260.0 500.05573
213.0 261.0 501.452534
213.0 262.0 502.857163
213.0 263.0 504.269683
213.0 264.0 505.690161
213.0 265.0 507.118664
213.0 266.0 507.118664
213.0 267.0 508.555261
213.0 268.0 510.00002
213.0 269.0 511.453012
213.0 270.0 512.914306
213.0 271.0 514.383975
214.0 0.0 729.756127
214.0 1.0 726.801648
214.0 2.0 726.801648
214.0 3.0 726.801648
214.0 4.0 726.801648
214.0 5.0 723.870997
214.0 6.0 723.870997
214.0 7.0 723.870997
214.0 8.0 723.870997
214.0 9.0 723.870997
214.0 10.0 720.963884
214.0 11.0 720.963884
214.0 12.0 720.963884
214.0 13.0 720.963884
214.0 14.0 720.963884
214.0 15.0 720.963884
214.0 16.0 720.963884
214.0 17.0 718.080029
214.0 18.0 718.080029
214.0 19.0 718.080029
214.0 20.0 718.080029
214.0 21.0 718.080029
214.0 22.0 718.080029
214.0 23.0 715.219152
214.0 24.0 715.219152
214.0 25.0 715.219152
214.0 26.0 715.219152
214.0 27.0 715.219152
214.0 28.0 715.219152
214.0 29.0 715.219152
214.0 30.0 712.380981
214.0 31.0 712.380981
214.0 32.0 712.380981
214.0 33.0 712.380981
214.0 34.0 712.380981
214.0 35.0 712.380981
214.0 36.0 709.565246
214.0 37.0 709.565246
214.0 38.0 709.565246
214.0 39.0 709.565246
214.0 40.0 709.565246
214.0 41.0 706.771682
214.0 42.0 706.771682
214.0 43.0 706.771682
214.0 44.0 706.771682
214.0 45.0 706.771682
214.0 46.0 706.771682
214.0 47.0 706.771682
214.0 48.0 704.000028
214.0 49.0 704.000028
214.0 50.0 704.000028
214.0 51.0 704.000028
214.0 52.0 704.000028
214.0 53.0 704.000028
214.0 54.0 704.000028
214.0 55.0 704.000028
214.0 56.0 701.250028
214.0 57.0 701.250028
214.0 58.0 701.250028
214.0 59.0 701.250028
214.0 60.0 701.250028
214.0 61.0 701.250028
214.0 62.0 701.250028
214.0 63.0 701.250028
214.0 64.0 698.521429
214.0 65.0 698.521429
214.0 66.0 698.521429
214.0 67.0 698.521429
214.0 68.0 698.521429
214.0 69.0 698.521429
214.0 70.0 695.813981
214.0 71.0 695.813981
214.0 72.0 695.813981
214.0 73.0 695.813981
214.0 74.0 695.813981
214.0 75.0 695.813981
214.0 76.0 695.813981
214.0 77.0 695.813981
214.0 78.0 695.813981
214.0 79.0 695.813981
214.0 80.0 693.127441
214.0 81.0 693.127441
214.0 82.0 693.127441
214.0 83.0 693.127441
214.0 84.0 693.127441
214.0 85.0 693.127441
214.0 86.0 693.127441
214.0 87.0 690.461566
214.0 88.0 690.461566
214.0 89.0 690.461566
214.0 90.0 690.461566
214.0 91.0 690.461566
214.0 92.0 690.461566
214.0 93.0 690.461566
214.0 94.0 690.461566
214.0 95.0 690.461566
214.0 96.0 687.816119
214.0 97.0 687.816119
214.0 98.0 687.816119
214.0 99.0 687.816119
214.0 100.0 687.816119
214.0 101.0 687.816119
214.0 102.0 687.816119
214.0 103.0 687.816119
214.0 104.0 685.190867
214.0 105.0 685.190867
214.0 106.0 685.190867
214.0 107.0 685.190867
214.0 108.0 685.190867
214.0 109.0 685.190867
214.0 110.0 685.190867
214.0 111.0 685.190867
214.0 112.0 682.585578
214.0 113.0 682.585578
214.0 114.0 682.585578
214.0 115.0 632.112701
214.0 116.0 632.112701
214.0 117.0 682.585578
214.0 118.0 682.585578
214.0 119.0 680.000027
214.0 120.0 680.000027
214.0 121.0 680.000027
214.0 122.0 680.000027
214.0 123.0 629.894762
214.0 124.0 629.894762
214.0 125.0 629.894762
214.0 126.0 629.894762
214.0 127.0 629.894762
214.0 128.0 629.894762
214.0 129.0 629.894762
214.0 130.0 629.894762
214.0 131.0 629.894762
214.0 132.0 629.894762
214.0 133.0 629.894762
214.0 134.0 627.692333
214.0 135.0 627.692333
214.0 136.0 627.692333
214.0 137.0 627.692333
214.0 138.0 627.692333
214.0 139.0 627.692333
214.0 140.0 627.692333
214.0 141.0 627.692333
214.0 142.0 627.692333
214.0 143.0 627.692333
214.0 144.0 627.692333
214.0 145.0 625.505251
214.0 146.0 625.505251
214.0 155.0 667.360621
214.0 156.0 667.360621
214.0 157.0 667.360621
214.0 163.0 667.360621
214.0 164.0 667.360621
214.0 165.0 664.888915
214.0 166.0 664.888915
214.0 171.0 582.857166
214.0 172.0 582.857166
214.0 173.0 582.857166
214.0 174.0 582.857166
214.0 175.0 582.857166
214.0 176.0 582.857166
214.0 177.0 582.857166
214.0 178.0 582.857166
214.0 179.0 582.857166
214.0 180.0 582.857166
214.0 181.0 582.857166
214.0 182.0 582.857166
214.0 183.0 582.857166
214.0 184.0 580.970897
214.0 185.0 582.857166
214.0 186.0 582.857166
214.0 187.0 580.970897
214.0 188.0 580.970897
214.0 189.0 580.970897
214.0 190.0 580.970897
214.0 191.0 580.970897
214.0 192.0 580.970897
214.0 193.0 580.970897
214.0 194.0 580.970897
214.0 195.0 580.970897
214.0 196.0 580.970897
214.0 197.0 580.970897
214.0 198.0 580.970897
214.0 199.0 580.970897
214.0 200.0 580.970897
214.0 201.0 580.970897
214.0 202.0 580.970897
214.0 203.0 580.970897
214.0 204.0 580.970897
214.0 205.0 580.970897
214.0 206.0 580.970897
214.0 207.0 580.970897
214.0 208.0 580.970897
214.0 209.0 580.970897
214.0 210.0 580.970897
214.0 211.0 580.970897
214.0 212.0 580.970897
214.0 213.0 580.970897
214.0 214.0 580.970897
214.0 215.0 580.970897
214.0 216.0 580.970897
214.0 217.0 580.970897
214.0 218.0 580.970897
214.0 219.0 580.970897
214.0 220.0 580.970897
214.0 221.0 580.970897
214.0 222.0 580.970897
214.0 223.0 580.970897
214.0 224.0 580.970897
214.0 225.0 580.970897
214.0 226.0 580.970897
214.0 227.0 582.857166
214.0 228.0 582.857166
214.0 229.0 436.788339
214.0 230.0 437.853676
214.0 231.0 437.853676
214.0 232.0 667.360621
214.0 233.0 667.360621
214.0 234.0 667.360621
214.0 235.0 669.850773
214.0 236.0 669.850773
214.0 237.0 669.850773
214.0 238.0 669.850773
214.0 239.0 582.857166
214.0 240.0 515.862089
214.0 241.0 508.555261
214.0 242.0 504.269683
214.0 243.0 502.857163
214.0 244.0 498.666686
214.0 245.0 497.285338
214.0 246.0 497.285338
214.0 247.0 497.285338
214.0 252.0 494.545474
214.0 253.0 494.545474
214.0 254.0 495.911622
214.0 255.0 495.911622
214.0 256.0 497.285338
214.0 257.0 498.666686
214.0 258.0 500.05573
214.0 259.0 501.452534
214.0 260.0 501.452534
214.0 261.0 502.857163
214.0 262.0 504.269683
214.0 263.0 505.690161
214.0 264.0 507.118664
214.0 265.0 508.555261
214.0 266.0 508.555261
214.0 267.0 510.00002
214.0 268.0 511.453012
214.0 269.0 512.914306
214.0 270.0 514.383975
214.0 271.0 515.862089
215.0 0.0 729.756127
215.0 1.0 729.756127
215.0 2.0 726.801648
215.0 3.0 726.801648
215.0 4.0 726.801648
215.0 5.0 723.870997
215.0 6.0 723.870997
215.0 7.0 723.870997
215.0 8.0 723.870997
215.0 9.0 723.870997
215.0 10.0 720.963884
215.0 11.0 720.963884
215.0 12.0 720.963884
215.0 13.0 720.963884
215.0 14.0 720.963884
215.0 15.0 720.963884
215.0 16.0 720.963884
215.0 17.0 720.963884
215.0 18.0 718.080029
215.0 19.0 718.080029
215.0 20.0 718.080029
215.0 21.0 718.080029
215.0 22.0 718.080029
215.0 23.0 718.080029
215.0 24.0 715.219152
215.0 25.0 715.219152
215.0 26.0 715.219152
215.0 27.0 715.219152
215.0 28.0 715.219152
215.0 29.0 715.219152
215.0 30.0 712.380981
215.0 31.0 712.380981
215.0 32.0 712.380981
215.0 33.0 712.380981
215.0 34.0 712.380981
215.0 35.0 712.380981
215.0 36.0 709.565246
215.0 37.0 709.565246
215.0 38.0 709.565246
215.0 39.0 709.565246
215.0 40.0 709.565246
215.0 41.0 706.771682
215.0 42.0 706.771682
215.0 43.0 706.771682
215.0 44.0 706.771682
215.0 45.0 706.771682
215.0 46.0 706.771682
215.0 47.0 706.771682
215.0 48.0 704.000028
215.0 49.0 704.000028
215.0 50.0 704.000028
215.0 51.0 704.000028
215.0 52.0 704.000028
215.0 53.0 704.000028
215.0 54.0 704.000028
215.0 55.0 704.000028
215.0 56.0 701.250028
215.0 57.0 701.250028
215.0 58.0 701.250028
215.0 59.0 701.250028
215.0 60.0 701.250028
215.0 61.0 701.250028
215.0 62.0 701.250028
215.0 63.0 701.250028
215.0 64.0 698.521429
215.0 65.0 698.521429
215.0 66.0 698.521429
215.0 67.0 698.521429
215.0 68.0 698.521429
215.0 69.0 698.521429
215.0 70.0 695.813981
215.0 71.0 695.813981
215.0 72.0 695.813981
215.0 73.0 695.813981
215.0 74.0 695.813981
215.0 75.0 695.813981
215.0 76.0 695.813981
215.0 77.0 695.813981
215.0 78.0 695.813981
215.0 79.0 693.127441
215.0 80.0 693.127441
215.0 81.0 693.127441
215.0 82.0 693.127441
215.0 83.0 693.127441
215.0 84.0 693.127441
215.0 85.0 693.127441
215.0 86.0 693.127441
215.0 87.0 690.461566
215.0 88.0 690.461566
215.0 89.0 690.461566
215.0 90.0 690.461566
215.0 91.0 690.461566
215.0 92.0 690.461566
215.0 93.0 690.461566
215.0 94.0 690.461566
215.0 95.0 690.461566
215.0 96.0 687.816119
215.0 97.0 687.816119
215.0 98.0 687.816119
215.0 99.0 687.816119
215.0 100.0 687.816119
215.0 101.0 687.816119
215.0 102.0 687.816119
215.0 103.0 687.816119
215.0 104.0 685.190867
215.0 105.0 685.190867
215.0 106.0 685.190867
215.0 107.0 685.190867
215.0 108.0 685.190867
215.0 109.0 685.190867
215.0 110.0 685.190867
215.0 111.0 685.190867
215.0 112.0 685.190867
215.0 113.0 682.585578
215.0 114.0 632.112701
215.0 115.0 632.112701
215.0 116.0 632.112701
215.0 117.0 632.112701
215.0 118.0 629.894762
215.0 119.0 629.894762
215.0 120.0 629.894762
215.0 121.0 629.894762
215.0 122.0 629.894762
215.0 123.0 629.894762
215.0 124.0 629.894762
215.0 125.0 629.894762
215.0 126.0 629.894762
215.0 127.0 627.692333
215.0 128.0 627.692333
215.0 129.0 627.692333
215.0 130.0 627.692333
