204.0 184.0 590.526339
204.0 185.0 590.526339
204.0 186.0 590.526339
204.0 187.0 590.526339
204.0 188.0 592.475271
204.0 189.0 592.475271
204.0 190.0 590.526339
204.0 191.0 592.475271
204.0 192.0 592.475271
204.0 193.0 592.475271
204.0 194.0 592.475271
204.0 195.0 592.475271
204.0 196.0 592.475271
204.0 197.0 592.475271
204.0 198.0 592.475271
204.0 199.0 592.475271
204.0 200.0 592.475271
204.0 201.0 592.475271
204.0 202.0 592.475271
204.0 203.0 592.475271
204.0 204.0 592.475271
204.0 205.0 592.475271
204.0 206.0 592.475271
204.0 207.0 592.475271
204.0 208.0 592.475271
204.0 209.0 592.475271
204.0 210.0 592.475271
204.0 211.0 592.475271
204.0 212.0 592.475271
204.0 213.0 592.475271
204.0 214.0 592.475271
204.0 215.0 592.475271
204.0 216.0 592.475271
204.0 217.0 592.475271
204.0 218.0 592.475271
204.0 219.0 592.475271
204.0 220.0 592.475271
204.0 221.0 592.475271
204.0 222.0 592.475271
204.0 223.0 592.475271
204.0 224.0 592.475271
204.0 225.0 590.526339
204.0 226.0 590.526339
204.0 227.0 590.526339
204.0 228.0 590.526339
204.0 229.0 590.526339
204.0 230.0 590.526339
204.0 231.0 590.526339
204.0 232.0 590.526339
204.0 233.0 588.590187
204.0 234.0 588.590187
204.0 235.0 588.590187
204.0 236.0 588.590187
204.0 237.0 588.590187
204.0 238.0 489.155333
204.0 239.0 489.155333
204.0 240.0 445.459075
204.0 241.0 446.567182
204.0 242.0 446.567182
204.0 243.0 447.680816
204.0 244.0 448.800018
204.0 245.0 448.800018
204.0 246.0 451.055294
204.0 247.0 452.191454
204.0 248.0 453.333351
204.0 249.0 454.481031
204.0 250.0 456.793911
204.0 251.0 457.959202
204.0 252.0 461.491021
204.0 253.0 462.680431
204.0 254.0 465.077739
204.0 255.0 467.500019
204.0 256.0 469.947663
204.0 257.0 474.920654
204.0 258.0 478.720019
204.0 259.0 482.580664
204.0 260.0 485.189208
204.0 261.0 487.826106
204.0 262.0 489.155333
204.0 263.0 491.835636
204.0 264.0 493.186833
204.0 265.0 495.911622
204.0 266.0 497.285338
204.0 267.0 500.05573
204.0 268.0 501.452534
204.0 269.0 502.857163
204.0 270.0 504.269683
204.0 271.0 507.118664
204.0 272.0 508.555261
204.0 273.0 511.453012
204.0 274.0 512.914306
204.0 275.0 512.914306
204.0 276.0 569.904785
204.0 277.0 569.904785
204.0 278.0 569.904785
204.0 279.0 568.101288
204.0 280.0 568.101288
204.0 281.0 568.101288
204.0 282.0 568.101288
204.0 283.0 568.101288
204.0 284.0 566.309171
204.0 285.0 566.309171
204.0 286.0 566.309171
204.0 287.0 566.309171
204.0 288.0 566.309171
204.0 289.0 566.309171
204.0 290.0 564.528324
204.0 291.0 564.528324
204.0 292.0 564.528324
204.0 293.0 566.309171
204.0 294.0 566.309171
204.0 295.0 566.309171
204.0 296.0 566.309171
204.0 297.0 625.505251
204.0 298.0 625.505251
204.0 299.0 623.333358
204.0 300.0 623.333358
204.0 301.0 623.333358
204.0 302.0 623.333358
204.0 303.0 623.333358
204.0 304.0 623.333358
204.0 305.0 623.333358
204.0 320.0 698.521429
204.0 321.0 698.521429
204.0 322.0 698.521429
204.0 323.0 698.521429
204.0 324.0 698.521429
204.0 325.0 698.521429
204.0 326.0 698.521429
204.0 327.0 698.521429
204.0 328.0 698.521429
204.0 329.0 698.521429
204.0 330.0 701.250028
204.0 331.0 701.250028
204.0 332.0 701.250028
204.0 333.0 592.475271
204.0 334.0 586.66669
204.0 335.0 584.755724
204.0 336.0 584.755724
204.0 337.0 582.857166
204.0 338.0 582.857166
204.0 339.0 580.970897
204.0 340.0 580.970897
204.0 341.0 580.970897
204.0 342.0 580.970897
204.0 343.0 580.970897
204.0 344.0 580.970897
204.0 345.0 580.970897
204.0 346.0 580.970897
204.0 347.0 580.970897
204.0 348.0 580.970897
204.0 349.0 580.970897
204.0 350.0 582.857166
204.0 351.0 582.857166
204.0 352.0 582.857166
204.0 353.0 704.000028
204.0 354.0 704.000028
204.0 355.0 704.000028
204.0 356.0 704.000028
204.0 357.0 704.000028
204.0 358.0 704.000028
204.0 359.0 704.000028
204.0 360.0 704.000028
204.0 361.0 704.000028
204.0 362.0 704.000028
204.0 363.0 706.771682
204.0 364.0 706.771682
204.0 365.0 706.771682
204.0 366.0 706.771682
204.0 367.0 706.771682
204.0 368.0 706.771682
204.0 369.0 706.771682
204.0 370.0 706.771682
204.0 371.0 706.771682
204.0 372.0 706.771682
204.0 373.0 706.771682
204.0 374.0 706.771682
204.0 375.0 706.771682
204.0 376.0 706.771682
204.0 377.0 706.771682
204.0 378.0 706.771682
204.0 379.0 706.771682
204.0 380.0 706.771682
204.0 381.0 706.771682
204.0 382.0 706.771682
204.0 383.0 706.771682
204.0 384.0 709.565246
204.0 385.0 709.565246
204.0 386.0 709.565246
204.0 387.0 709.565246
204.0 388.0 709.565246
204.0 389.0 709.565246
204.0 390.0 709.565246
204.0 391.0 709.565246
204.0 392.0 709.565246
204.0 393.0 709.565246
204.0 394.0 709.565246
204.0 395.0 709.565246
204.0 396.0 709.565246
204.0 397.0 709.565246
204.0 398.0 709.565246
204.0 399.0 709.565246
204.0 400.0 709.565246
204.0 401.0 709.565246
204.0 402.0 709.565246
204.0 403.0 709.565246
204.0 404.0 709.565246
204.0 405.0 709.565246
204.0 406.0 709.565246
204.0 407.0 709.565246
204.0 408.0 709.565246
204.0 409.0 709.565246
204.0 410.0 709.565246
204.0 411.0 709.565246
204.0 412.0 709.565246
204.0 413.0 709.565246
204.0 414.0 709.565246
204.0 415.0 709.565246
204.0 416.0 709.565246
204.0 417.0 709.565246
204.0 418.0 709.565246
204.0 419.0 709.565246
204.0 420.0 709.565246
204.0 421.0 709.565246
204.0 422.0 709.565246
204.0 423.0 709.565246
204.0 424.0 709.565246
204.0 425.0 709.565246
204.0 426.0 709.565246
205.0 152.0 582.857166
205.0 153.0 582.857166
205.0 154.0 582.857166
205.0 155.0 582.857166
205.0 156.0 582.857166
205.0 157.0 584.755724
205.0 158.0 584.755724
205.0 159.0 584.755724
205.0 160.0 584.755724
205.0 161.0 584.755724
205.0 162.0 584.755724
205.0 163.0 584.755724
205.0 164.0 584.755724
205.0 165.0 584.755724
205.0 166.0 586.66669
205.0 167.0 586.66669
205.0 168.0 586.66669
205.0 169.0 586.66669
205.0 170.0 586.66669
205.0 171.0 586.66669
205.0 172.0 586.66669
205.0 173.0 586.66669
205.0 174.0 586.66669
205.0 175.0 588.590187
205.0 176.0 588.590187
205.0 177.0 588.590187
205.0 178.0 588.590187
205.0 179.0 588.590187
205.0 180.0 588.590187
205.0 181.0 588.590187
205.0 182.0 588.590187
205.0 183.0 588.590187
205.0 184.0 590.526339
205.0 185.0 588.590187
205.0 186.0 588.590187
205.0 187.0 588.590187
205.0 188.0 590.526339
205.0 189.0 590.526339
205.0 190.0 590.526339
205.0 191.0 590.526339
205.0 192.0 590.526339
205.0 193.0 590.526339
205.0 194.0 590.526339
205.0 195.0 590.526339
205.0 196.0 590.526339
205.0 197.0 590.526339
205.0 198.0 590.526339
205.0 199.0 590.526339
205.0 200.0 590.526339
205.0 201.0 590.526339
205.0 202.0 590.526339
205.0 203.0 590.526339
205.0 204.0 590.526339
205.0 205.0 590.526339
205.0 206.0 590.526339
205.0 207.0 590.526339
205.0 208.0 590.526339
205.0 209.0 590.526339
205.0 210.0 590.526339
205.0 211.0 590.526339
205.0 212.0 590.526339
205.0 213.0 590.526339
205.0 214.0 590.526339
205.0 215.0 590.526339
205.0 216.0 590.526339
205.0 217.0 590.526339
205.0 218.0 590.526339
205.0 219.0 590.526339
205.0 220.0 590.526339
205.0 221.0 590.526339
205.0 222.0 590.526339
205.0 223.0 590.526339
205.0 224.0 590.526339
205.0 225.0 590.526339
205.0 226.0 588.590187
205.0 227.0 588.590187
205.0 228.0 588.590187
205.0 229.0 588.590187
205.0 230.0 588.590187
205.0 231.0 588.590187
205.0 232.0 588.590187
205.0 233.0 586.66669
205.0 234.0 586.66669
205.0 235.0 586.66669
205.0 236.0 586.66669
205.0 237.0 586.66669
205.0 238.0 443.259277
205.0 239.0 444.356453
205.0 240.0 444.356453
205.0 241.0 445.459075
205.0 242.0 445.459075
205.0 243.0 446.567182
205.0 244.0 447.680816
205.0 245.0 448.800018
205.0 246.0 449.92483
205.0 247.0 451.055294
205.0 248.0 453.333351
205.0 249.0 454.481031
205.0 250.0 456.793911
205.0 251.0 457.959202
205.0 252.0 460.307711
205.0 253.0 462.680431
205.0 254.0 465.077739
205.0 255.0 468.720645
205.0 256.0 472.421071
205.0 257.0 478.720019
205.0 258.0 480.000019
205.0 259.0 483.881421
205.0 260.0 486.504084
205.0 261.0 489.155333
205.0 262.0 490.491823
205.0 263.0 493.186833
205.0 264.0 494.545474
205.0 265.0 495.911622
205.0 266.0 498.666686
205.0 267.0 500.05573
205.0 268.0 501.452534
205.0 269.0 504.269683
205.0 270.0 505.690161
205.0 271.0 507.118664
205.0 272.0 508.555261
205.0 273.0 511.453012
205.0 274.0 512.914306
205.0 275.0 514.383975
205.0 276.0 515.862089
205.0 277.0 569.904785
205.0 278.0 569.904785
205.0 279.0 569.904785
205.0 280.0 569.904785
205.0 281.0 568.101288
205.0 282.0 568.101288
205.0 283.0 568.101288
205.0 284.0 568.101288
205.0 285.0 568.101288
205.0 286.0 566.309171
205.0 287.0 566.309171
205.0 288.0 566.309171
205.0 289.0 566.309171
205.0 290.0 566.309171
205.0 291.0 566.309171
205.0 292.0 566.309171
205.0 293.0 566.309171
205.0 294.0 625.505251
205.0 295.0 625.505251
205.0 296.0 625.505251
205.0 297.0 623.333358
205.0 298.0 623.333358
205.0 299.0 623.333358
205.0 300.0 623.333358
205.0 301.0 623.333358
205.0 302.0 623.333358
205.0 303.0 623.333358
205.0 304.0 623.333358
205.0 319.0 695.813981
205.0 320.0 695.813981
205.0 321.0 698.521429
205.0 322.0 698.521429
205.0 323.0 698.521429
205.0 324.0 698.521429
205.0 325.0 698.521429
205.0 326.0 698.521429
205.0 327.0 698.521429
205.0 328.0 698.521429
205.0 329.0 698.521429
205.0 330.0 698.521429
205.0 331.0 701.250028
205.0 332.0 590.526339
205.0 333.0 586.66669
205.0 334.0 584.755724
205.0 335.0 582.857166
205.0 336.0 582.857166
205.0 337.0 582.857166
205.0 338.0 580.970897
205.0 339.0 580.970897
205.0 340.0 580.970897
205.0 341.0 580.970897
205.0 342.0 580.970897
205.0 343.0 580.970897
205.0 344.0 580.970897
205.0 345.0 580.970897
205.0 346.0 580.970897
205.0 347.0 580.970897
205.0 348.0 580.970897
205.0 349.0 582.857166
205.0 350.0 582.857166
205.0 351.0 584.755724
205.0 352.0 704.000028
205.0 353.0 704.000028
205.0 354.0 704.000028
205.0 355.0 704.000028
205.0 356.0 704.000028
205.0 357.0 704.000028
205.0 358.0 704.000028
205.0 359.0 704.000028
205.0 360.0 704.000028
205.0 361.0 704.000028
205.0 362.0 706.771682
205.0 363.0 704.000028
205.0 364.0 706.771682
205.0 365.0 706.771682
205.0 366.0 706.771682
205.0 367.0 706.771682
205.0 368.0 706.771682
205.0 369.0 706.771682
205.0 370.0 706.771682
205.0 371.0 706.771682
205.0 372.0 706.771682
205.0 373.0 706.771682
205.0 374.0 706.771682
205.0 375.0 706.771682
205.0 376.0 706.771682
205.0 377.0 706.771682
205.0 378.0 706.771682
205.0 379.0 706.771682
205.0 380.0 706.771682
205.0 381.0 706.771682
205.0 382.0 706.771682
205.0 383.0 709.565246
205.0 384.0 709.565246
205.0 385.0 709.565246
205.0 386.0 709.565246
205.0 387.0 709.565246
205.0 388.0 709.565246
205.0 389.0 709.565246
205.0 390.0 709.565246
205.0 391.0 709.565246
205.0 392.0 709.565246
205.0 393.0 709.565246
205.0 394.0 709.565246
205.0 395.0 709.565246
205.0 396.0 709.565246
205.0 397.0 709.565246
205.0 398.0 709.565246
205.0 399.0 709.565246
205.0 400.0 709.565246
205.0 401.0 709.565246
205.0 402.0 709.565246
205.0 403.0 709.565246
205.0 404.0 709.565246
205.0 405.0 709.565246
205.0 406.0 709.565246
205.0 407.0 709.565246
205.0 408.0 709.565246
205.0 409.0 709.565246
205.0 410.0 709.565246
205.0 411.0 709.565246
205.0 412.0 709.565246
205.0 413.0 709.565246
205.0 414.0 709.565246
205.0 415.0 709.565246
205.0 416.0 709.565246
205.0 417.0 709.565246
205.0 418.0 709.565246
205.0 419.0 709.565246
205.0 420.0 709.565246
205.0 421.0 709.565246
205.0 422.0 709.565246
205.0 423.0 709.565246
205.0 424.0 709.565246
205.0 425.0 709.565246
205.0 426.0 709.565246
206.0 152.0 582.857166
206.0 153.0 582.857166
206.0 154.0 582.857166
206.0 155.0 582.857166
206.0 156.0 582.857166
206.0 157.0 582.857166
206.0 158.0 582.857166
206.0 159.0 582.857166
206.0 160.0 582.857166
206.0 161.0 584.755724
206.0 162.0 584.755724
206.0 163.0 584.755724
206.0 164.0 584.755724
206.0 165.0 584.755724
206.0 166.0 584.755724
206.0 167.0 584.755724
206.0 168.0 584.755724
206.0 169.0 584.755724
206.0 170.0 584.755724
206.0 171.0 586.66669
206.0 172.0 586.66669
206.0 173.0 586.66669
206.0 174.0 586.66669
206.0 175.0 586.66669
206.0 176.0 586.66669
206.0 177.0 586.66669
206.0 178.0 586.66669
206.0 179.0 588.590187
206.0 180.0 588.590187
206.0 181.0 588.590187
206.0 182.0 588.590187
206.0 183.0 588.590187
206.0 184.0 588.590187
206.0 185.0 588.590187
206.0 186.0 588.590187
206.0 187.0 588.590187
206.0 188.0 588.590187
206.0 189.0 588.590187
206.0 190.0 588.590187
206.0 191.0 588.590187
206.0 192.0 588.590187
206.0 193.0 588.590187
206.0 194.0 588.590187
206.0 195.0 588.590187
206.0 196.0 588.590187
206.0 197.0 588.590187
206.0 198.0 588.590187
206.0 199.0 588.590187
206.0 200.0 588.590187
206.0 201.0 590.526339
206.0 202.0 590.526339
206.0 203.0 588.590187
206.0 204.0 590.526339
206.0 205.0 590.526339
206.0 206.0 590.526339
206.0 207.0 588.590187
206.0 208.0 590.526339
206.0 209.0 590.526339
206.0 210.0 590.526339
206.0 211.0 590.526339
206.0 212.0 588.590187
206.0 213.0 588.590187
206.0 214.0 588.590187
206.0 215.0 588.590187
206.0 216.0 588.590187
206.0 217.0 588.590187
206.0 218.0 588.590187
206.0 219.0 588.590187
206.0 220.0 588.590187
206.0 221.0 588.590187
206.0 222.0 588.590187
206.0 223.0 588.590187
206.0 224.0 588.590187
206.0 225.0 588.590187
206.0 226.0 586.66669
206.0 227.0 586.66669
206.0 228.0 586.66669
206.0 229.0 586.66669
206.0 230.0 586.66669
206.0 231.0 586.66669
206.0 232.0 586.66669
206.0 233.0 584.755724
206.0 234.0 584.755724
206.0 235.0 584.755724
206.0 236.0 584.755724
206.0 237.0 442.167505
206.0 238.0 442.167505
206.0 239.0 443.259277
206.0 240.0 443.259277
206.0 241.0 444.356453
206.0 242.0 445.459075
206.0 243.0 446.567182
206.0 244.0 447.680816
206.0 245.0 448.800018
206.0 246.0 449.92483
206.0 247.0 451.055294
206.0 248.0 453.333351
206.0 249.0 455.634536
206.0 250.0 456.793911
206.0 251.0 459.130453
206.0 252.0 461.491021
206.0 253.0 463.875987
206.0 254.0 466.285733
206.0 255.0 469.947663
206.0 256.0 472.421071
206.0 257.0 478.720019
206.0 258.0 482.580664
206.0 259.0 485.189208
206.0 260.0 487.826106
206.0 261.0 490.491823
206.0 262.0 491.835636
206.0 263.0 494.545474
206.0 264.0 495.911622
206.0 265.0 497.285338
206.0 266.0 498.666686
206.0 267.0 501.452534
206.0 268.0 502.857163
206.0 269.0 504.269683
206.0 270.0 505.690161
206.0 271.0 508.555261
206.0 272.0 510.00002
206.0 273.0 511.453012
206.0 274.0 512.914306
206.0 275.0 514.383975
206.0 276.0 515.862089
206.0 277.0 517.348724
206.0 278.0 521.860486
206.0 279.0 523.381945
206.0 280.0 569.904785
206.0 281.0 569.904785
206.0 282.0 569.904785
206.0 283.0 569.904785
206.0 284.0 568.101288
206.0 285.0 568.101288
206.0 286.0 568.101288
206.0 287.0 568.101288
206.0 288.0 568.101288
206.0 289.0 568.101288
206.0 290.0 568.101288
206.0 291.0 625.505251
206.0 292.0 625.505251
206.0 293.0 625.505251
206.0 294.0 625.505251
206.0 295.0 625.505251
206.0 296.0 623.333358
206.0 297.0 623.333358
206.0 298.0 623.333358
206.0 299.0 623.333358
206.0 300.0 623.333358
206.0 301.0 623.333358
206.0 302.0 623.333358
206.0 303.0 623.333358
206.0 304.0 623.333358
206.0 318.0 695.813981
206.0 319.0 695.813981
206.0 320.0 695.813981
206.0 321.0 695.813981
206.0 322.0 698.521429
206.0 323.0 698.521429
206.0 324.0 698.521429
206.0 325.0 698.521429
206.0 326.0 698.521429
206.0 327.0 698.521429
206.0 328.0 698.521429
206.0 329.0 698.521429
206.0 330.0 698.521429
206.0 331.0 588.590187
206.0 332.0 586.66669
206.0 333.0 584.755724
206.0 334.0 582.857166
206.0 335.0 582.857166
206.0 336.0 582.857166
206.0 337.0 580.970897
206.0 338.0 580.970897
206.0 339.0 580.970897
206.0 340.0 580.970897
206.0 341.0 579.096797
206.0 342.0 579.096797
206.0 343.0 580.970897
206.0 344.0 580.970897
206.0 345.0 580.970897
206.0 346.0 580.970897
206.0 347.0 580.970897
206.0 348.0 582.857166
206.0 349.0 582.857166
206.0 350.0 584.755724
206.0 351.0 704.000028
206.0 352.0 704.000028
206.0 353.0 704.000028
206.0 354.0 704.000028
206.0 355.0 704.000028
206.0 356.0 704.000028
206.0 357.0 704.000028
206.0 358.0 704.000028
206.0 359.0 704.000028
206.0 360.0 704.000028
206.0 361.0 704.000028
206.0 362.0 704.000028
206.0 363.0 704.000028
206.0 364.0 704.000028
206.0 365.0 704.000028
206.0 366.0 704.000028
206.0 367.0 704.000028
206.0 368.0 706.771682
206.0 369.0 706.771682
206.0 370.0 706.771682
206.0 371.0 706.771682
206.0 372.0 706.771682
206.0 373.0 706.771682
206.0 374.0 706.771682
206.0 375.0 706.771682
206.0 376.0 706.771682
206.0 377.0 706.771682
206.0 378.0 706.771682
206.0 379.0 706.771682
206.0 380.0 706.771682
206.0 381.0 706.771682
206.0 382.0 706.771682
206.0 383.0 709.565246
206.0 384.0 709.565246
206.0 385.0 709.565246
206.0 386.0 706.771682
206.0 387.0 709.565246
206.0 388.0 709.565246
206.0 389.0 709.565246
206.0 390.0 709.565246
206.0 391.0 709.565246
206.0 392.0 709.565246
206.0 393.0 709.565246
206.0 394.0 709.565246
206.0 395.0 709.565246
206.0 396.0 709.565246
206.0 397.0 709.565246
206.0 398.0 709.565246
206.0 399.0 709.565246
206.0 400.0 709.565246
206.0 401.0 709.565246
206.0 402.0 709.565246
206.0 403.0 709.565246
206.0 404.0 709.565246
206.0 405.0 709.565246
206.0 406.0 709.565246
206.0 407.0 709.565246
206.0 408.0 709.565246
206.0 409.0 709.565246
206.0 410.0 709.565246
206.0 411.0 709.565246
206.0 412.0 709.565246
206.0 413.0 709.565246
206.0 414.0 709.565246
206.0 415.0 709.565246
206.0 416.0 709.565246
206.0 417.0 709.565246
206.0 418.0 709.565246
206.0 419.0 709.565246
206.0 420.0 709.565246
206.0 421.0 709.565246
206.0 422.0 709.565246
206.0 423.0 709.565246
206.0 424.0 709.565246
206.0 425.0 709.565246
206.0 426.0 709.565246
207.0 152.0 582.857166
207.0 153.0 582.857166
207.0 154.0 582.857166
207.0 155.0 582.857166
207.0 156.0 582.857166
207.0 157.0 582.857166
207.0 158.0 582.857166
207.0 159.0 582.857166
207.0 160.0 582.857166
207.0 161.0 582.857166
207.0 162.0 582.857166
207.0 163.0 582.857166
207.0 164.0 582.857166
207.0 165.0 582.857166
207.0 166.0 584.755724
207.0 167.0 584.755724
207.0 168.0 584.755724
207.0 169.0 584.755724
207.0 170.0 584.755724
207.0 171.0 584.755724
207.0 172.0 584.755724
207.0 173.0 584.755724
207.0 174.0 584.755724
207.0 175.0 584.755724
207.0 176.0 584.755724
207.0 177.0 584.755724
207.0 178.0 586.66669
207.0 179.0 586.66669
207.0 180.0 586.66669
207.0 181.0 586.66669
207.0 182.0 586.66669
207.0 183.0 586.66669
207.0 184.0 586.66669
207.0 185.0 586.66669
207.0 186.0 586.66669
207.0 187.0 586.66669
207.0 188.0 586.66669
207.0 189.0 586.66669
207.0 190.0 588.590187
207.0 191.0 588.590187
207.0 192.0 586.66669
207.0 193.0 586.66669
207.0 194.0 586.66669
207.0 195.0 586.66669
207.0 196.0 588.590187
207.0 197.0 588.590187
207.0 198.0 588.590187
207.0 199.0 588.590187
207.0 200.0 588.590187
207.0 201.0 588.590187
207.0 202.0 588.590187
207.0 203.0 588.590187
207.0 204.0 588.590187
207.0 205.0 588.590187
207.0 206.0 588.590187
207.0 207.0 588.590187
207.0 208.0 588.590187
207.0 209.0 588.590187
207.0 210.0 588.590187
207.0 211.0 588.590187
207.0 212.0 588.590187
207.0 213.0 588.590187
207.0 214.0 588.590187
207.0 215.0 586.66669
207.0 216.0 586.66669
207.0 217.0 586.66669
207.0 218.0 586.66669
207.0 219.0 586.66669
207.0 220.0 586.66669
207.0 221.0 586.66669
207.0 222.0 586.66669
207.0 223.0 586.66669
207.0 224.0 586.66669
207.0 225.0 584.755724
207.0 226.0 584.755724
207.0 227.0 584.755724
207.0 228.0 582.857166
207.0 229.0 582.857166
207.0 230.0 582.857166
207.0 231.0 580.970897
207.0 232.0 580.970897
207.0 233.0 580.970897
207.0 234.0 580.970897
207.0 235.0 580.970897
207.0 236.0 441.081099
207.0 237.0 441.081099
207.0 238.0 442.167505
207.0 239.0 442.167505
207.0 240.0 443.259277
207.0 241.0 444.356453
207.0 242.0 445.459075
207.0 243.0 446.567182
207.0 244.0 447.680816
207.0 245.0 448.800018
207.0 246.0 449.92483
207.0 247.0 452.191454
207.0 248.0 453.333351
207.0 249.0 455.634536
207.0 250.0 457.959202
207.0 251.0 460.307711
207.0 252.0 462.680431
207.0 253.0 465.077739
207.0 254.0 468.720645
207.0 255.0 471.181121
207.0 256.0 478.720019
207.0 257.0 482.580664
207.0 258.0 485.189208
207.0 259.0 486.504084
207.0 260.0 489.155333
207.0 261.0 491.835636
207.0 262.0 493.186833
207.0 263.0 494.545474
207.0 264.0 497.285338
207.0 265.0 498.666686
207.0 266.0 500.05573
207.0 267.0 501.452534
207.0 268.0 504.269683
207.0 269.0 505.690161
207.0 270.0 507.118664
207.0 271.0 508.555261
207.0 272.0 510.00002
207.0 273.0 511.453012
207.0 274.0 514.383975
207.0 275.0 515.862089
207.0 276.0 517.348724
207.0 277.0 517.348724
207.0 278.0 520.347847
207.0 279.0 521.860486
207.0 280.0 571.719768
207.0 281.0 571.719768
207.0 282.0 571.719768
207.0 283.0 571.719768
207.0 284.0 569.904785
207.0 285.0 569.904785
207.0 286.0 569.904785
207.0 289.0 625.505251
207.0 290.0 625.505251
207.0 291.0 625.505251
207.0 292.0 625.505251
207.0 293.0 625.505251
207.0 294.0 623.333358
207.0 295.0 623.333358
207.0 296.0 623.333358
207.0 297.0 623.333358
207.0 298.0 623.333358
207.0 299.0 623.333358
207.0 300.0 623.333358
207.0 301.0 623.333358
207.0 302.0 623.333358
207.0 303.0 623.333358
207.0 317.0 695.813981
207.0 318.0 695.813981
207.0 319.0 695.813981
207.0 320.0 695.813981
207.0 321.0 695.813981
207.0 322.0 695.813981
207.0 323.0 698.521429
207.0 324.0 698.521429
207.0 325.0 698.521429
207.0 326.0 698.521429
207.0 327.0 698.521429
207.0 328.0 698.521429
207.0 329.0 698.521429
207.0 330.0 586.66669
207.0 331.0 584.755724
207.0 332.0 584.755724
207.0 333.0 582.857166
207.0 334.0 582.857166
207.0 335.0 580.970897
207.0 336.0 580.970897
207.0 337.0 580.970897
207.0 338.0 580.970897
207.0 339.0 580.970897
207.0 340.0 580.970897
207.0 341.0 580.970897
207.0 342.0 580.970897
207.0 343.0 580.970897
207.0 344.0 580.970897
207.0 345.0 580.970897
207.0 346.0 582.857166
207.0 347.0 582.857166
207.0 348.0 582.857166
207.0 349.0 584.755724
207.0 350.0 704.000028
207.0 351.0 704.000028
207.0 352.0 704.000028
207.0 353.0 704.000028
207.0 354.0 704.000028
207.0 355.0 704.000028
207.0 356.0 704.000028
207.0 357.0 704.000028
207.0 358.0 704.000028
207.0 359.0 704.000028
207.0 360.0 704.000028
207.0 361.0 704.000028
207.0 362.0 704.000028
207.0 363.0 704.000028
207.0 364.0 704.000028
207.0 365.0 704.000028
207.0 366.0 704.000028
207.0 367.0 706.771682
207.0 368.0 706.771682
207.0 369.0 706.771682
207.0 370.0 704.000028
207.0 371.0 706.771682
207.0 372.0 706.771682
207.0 373.0 706.771682
207.0 374.0 706.771682
207.0 375.0 706.771682
207.0 376.0 706.771682
207.0 377.0 706.771682
207.0 378.0 706.771682
207.0 379.0 706.771682
207.0 380.0 706.771682
207.0 381.0 706.771682
207.0 382.0 706.771682
207.0 383.0 709.565246
207.0 384.0 709.565246
207.0 385.0 706.771682
207.0 386.0 706.771682
207.0 387.0 709.565246
207.0 388.0 709.565246
207.0 389.0 709.565246
207.0 390.0 709.565246
207.0 391.0 709.565246
207.0 392.0 709.565246
207.0 393.0 709.565246
207.0 394.0 709.565246
207.0 395.0 709.565246
207.0 396.0 709.565246
207.0 397.0 709.565246
207.0 398.0 709.565246
207.0 399.0 709.565246
207.0 400.0 709.565246
207.0 401.0 709.565246
207.0 402.0 709.565246
207.0 403.0 709.565246
207.0 404.0 709.565246
207.0 405.0 709.565246
207.0 406.0 709.565246
207.0 407.0 709.565246
207.0 408.0 709.565246
207.0 409.0 709.565246
207.0 410.0 709.565246
207.0 411.0 709.565246
207.0 412.0 709.565246
207.0 413.0 709.565246
207.0 414.0 709.565246
207.0 415.0 709.565246
207.0 416.0 709.565246
207.0 417.0 709.565246
207.0 418.0 709.565246
207.0 419.0 709.565246
207.0 420.0 709.565246
207.0 421.0 709.565246
207.0 422.0 709.565246
207.0 423.0 709.565246
207.0 424.0 709.565246
207.0 425.0 709.565246
207.0 426.0 709.565246
208.0 152.0 582.857166
208.0 153.0 582.857166
208.0 154.0 582.857166
208.0 155.0 582.857166
208.0 156.0 582.857166
208.0 157.0 582.857166
208.0 158.0 580.970897
208.0 159.0 580.970897
208.0 160.0 582.857166
208.0 161.0 582.857166
208.0 162.0 582.857166
208.0 163.0 582.857166
208.0 164.0 582.857166
208.0 165.0 582.857166
208.0 166.0 582.857166
208.0 167.0 582.857166
208.0 168.0 582.857166
208.0 169.0 582.857166
208.0 170.0 582.857166
208.0 171.0 582.857166
208.0 172.0 582.857166
208.0 173.0 584.755724
208.0 174.0 584.755724
208.0 175.0 584.755724
208.0 176.0 584.755724
208.0 177.0 584.755724
208.0 178.0 584.755724
208.0 179.0 584.755724
208.0 180.0 584.755724
208.0 181.0 584.755724
208.0 182.0 584.755724
208.0 183.0 584.755724
208.0 184.0 584.755724
208.0 185.0 584.755724
208.0 186.0 584.755724
208.0 187.0 584.755724
208.0 188.0 584.755724
208.0 189.0 584.755724
208.0 190.0 584.755724
208.0 191.0 586.66669
208.0 192.0 586.66669
208.0 193.0 586.66669
208.0 194.0 586.66669
208.0 195.0 586.66669
208.0 196.0 586.66669
208.0 197.0 586.66669
208.0 198.0 586.66669
208.0 199.0 586.66669
208.0 200.0 586.66669
208.0 201.0 586.66669
208.0 202.0 586.66669
208.0 203.0 586.66669
208.0 204.0 586.66669
208.0 205.0 586.66669
208.0 206.0 586.66669
208.0 207.0 586.66669
208.0 208.0 586.66669
208.0 209.0 586.66669
208.0 210.0 586.66669
208.0 211.0 586.66669
208.0 212.0 586.66669
208.0 213.0 584.755724
208.0 214.0 584.755724
208.0 215.0 584.755724
208.0 216.0 584.755724
208.0 217.0 584.755724
208.0 218.0 584.755724
208.0 219.0 584.755724
208.0 220.0 584.755724
208.0 221.0 582.857166
208.0 222.0 582.857166
208.0 223.0 582.857166
208.0 224.0 582.857166
208.0 225.0 582.857166
208.0 226.0 580.970897
208.0 227.0 580.970897
208.0 228.0 580.970897
208.0 229.0 580.970897
208.0 230.0 580.970897
208.0 231.0 580.970897
208.0 232.0 579.096797
208.0 233.0 579.096797
208.0 234.0 438.924223
208.0 235.0 440.000017
208.0 236.0 441.081099
208.0 237.0 441.081099
208.0 238.0 441.081099
208.0 239.0 442.167505
208.0 240.0 443.259277
208.0 241.0 444.356453
208.0 242.0 445.459075
208.0 243.0 446.567182
208.0 244.0 447.680816
208.0 245.0 449.92483
208.0 246.0 451.055294
208.0 247.0 453.333351
208.0 248.0 455.634536
208.0 249.0 457.959202
208.0 250.0 459.130453
208.0 251.0 463.875987
208.0 252.0 465.077739
208.0 253.0 467.500019
208.0 254.0 469.947663
208.0 256.0 481.286882
208.0 257.0 483.881421
208.0 258.0 486.504084
208.0 259.0 489.155333
208.0 260.0 490.491823
208.0 261.0 493.186833
208.0 262.0 494.545474
208.0 263.0 495.911622
208.0 264.0 498.666686
208.0 265.0 500.05573
208.0 266.0 501.452534
208.0 267.0 502.857163
208.0 268.0 504.269683
208.0 269.0 507.118664
208.0 270.0 508.555261
208.0 271.0 510.00002
208.0 272.0 511.453012
208.0 273.0 512.914306
208.0 274.0 514.383975
208.0 275.0 515.862089
208.0 276.0 517.348724
208.0 277.0 518.843951
208.0 278.0 520.347847
208.0 279.0 521.860486
208.0 280.0 523.381945
208.0 281.0 573.546349
208.0 287.0 590.526339
208.0 288.0 625.505251
208.0 289.0 625.505251
208.0 290.0 625.505251
208.0 291.0 625.505251
208.0 292.0 625.505251
208.0 293.0 623.333358
208.0 294.0 623.333358
208.0 295.0 623.333358
208.0 296.0 623.333358
208.0 297.0 623.333358
208.0 298.0 623.333358
208.0 299.0 623.333358
208.0 300.0 623.333358
208.0 301.0 623.333358
208.0 302.0 623.333358
208.0 303.0 623.333358
208.0 316.0 695.813981
208.0 317.0 695.813981
208.0 318.0 695.813981
208.0 319.0 695.813981
208.0 320.0 695.813981
208.0 321.0 695.813981
208.0 322.0 695.813981
208.0 323.0 695.813981
208.0 324.0 698.521429
208.0 325.0 698.521429
208.0 326.0 698.521429
208.0 327.0 698.521429
208.0 328.0 590.526339
208.0 329.0 586.66669
208.0 330.0 584.755724
208.0 331.0 584.755724
208.0 332.0 582.857166
208.0 333.0 582.857166
208.0 334.0 580.970897
208.0 335.0 580.970897
208.0 336.0 580.970897
208.0 337.0 580.970897
208.0 338.0 580.970897
208.0 339.0 580.970897
208.0 340.0 580.970897
208.0 341.0 580.970897
208.0 342.0 580.970897
208.0 343.0 580.970897
208.0 344.0 580.970897
208.0 345.0 582.857166
208.0 346.0 582.857166
208.0 347.0 582.857166
208.0 348.0 584.755724
208.0 349.0 704.000028
208.0 350.0 704.000028
208.0 351.0 704.000028
208.0 352.0 704.000028
208.0 353.0 704.000028
208.0 354.0 704.000028
208.0 355.0 704.000028
208.0 356.0 704.000028
208.0 357.0 704.000028
208.0 358.0 704.000028
208.0 359.0 704.000028
208.0 360.0 704.000028
208.0 361.0 704.000028
208.0 362.0 704.000028
208.0 363.0 704.000028
208.0 364.0 704.000028
208.0 365.0 704.000028
208.0 366.0 704.000028
208.0 367.0 704.000028
208.0 368.0 704.000028
208.0 369.0 704.000028
208.0 370.0 704.000028
208.0 371.0 704.000028
208.0 372.0 706.771682
208.0 373.0 706.771682
208.0 374.0 706.771682
208.0 375.0 706.771682
208.0 376.0 706.771682
208.0 377.0 706.771682
208.0 378.0 706.771682
208.0 379.0 706.771682
208.0 380.0 706.771682
208.0 381.0 706.771682
208.0 382.0 706.771682
208.0 383.0 706.771682
208.0 384.0 706.771682
208.0 385.0 706.771682
208.0 386.0 706.771682
208.0 387.0 709.565246
208.0 388.0 709.565246
208.0 389.0 709.565246
208.0 390.0 709.565246
208.0 391.0 709.565246
208.0 392.0 709.565246
208.0 393.0 709.565246
208.0 394.0 709.565246
208.0 395.0 709.565246
208.0 396.0 709.565246
208.0 397.0 709.565246
208.0 398.0 709.565246
208.0 399.0 709.565246
208.0 400.0 709.565246
208.0 401.0 709.565246
208.0 402.0 709.565246
208.0 403.0 709.565246
208.0 404.0 709.565246
208.0 405.0 709.565246
208.0 406.0 709.565246
208.0 407.0 709.565246
208.0 408.0 709.565246
208.0 409.0 709.565246
208.0 410.0 709.565246
208.0 411.0 709.565246
208.0 412.0 709.565246
208.0 413.0 709.565246
208.0 414.0 709.565246
208.0 415.0 709.565246
208.0 416.0 709.565246
208.0 417.0 709.565246
208.0 418.0 709.565246
208.0 419.0 709.565246
208.0 420.0 709.565246
208.0 421.0 709.565246
208.0 422.0 709.565246
208.0 423.0 709.565246
208.0 424.0 709.565246
208.0 425.0 709.565246
208.0 426.0 709.565246
209.0 152.0 582.857166
209.0 153.0 582.857166
209.0 154.0 582.857166
209.0 155.0 582.857166
209.0 156.0 582.857166
209.0 157.0 582.857166
209.0 158.0 580.970897
209.0 159.0 580.970897
209.0 160.0 580.970897
209.0 161.0 582.857166
209.0 162.0 582.857166
209.0 163.0 582.857166
209.0 164.0 582.857166
209.0 165.0 582.857166
209.0 166.0 582.857166
209.0 167.0 582.857166
209.0 168.0 582.857166
209.0 169.0 582.857166
209.0 170.0 582.857166
209.0 171.0 582.857166
209.0 172.0 582.857166
209.0 173.0 582.857166
209.0 174.0 582.857166
209.0 175.0 582.857166
209.0 176.0 582.857166
209.0 177.0 582.857166
209.0 178.0 582.857166
209.0 179.0 582.857166
209.0 180.0 582.857166
209.0 181.0 584.755724
209.0 182.0 584.755724
209.0 183.0 584.755724
209.0 184.0 584.755724
209.0 185.0 584.755724
209.0 186.0 584.755724
209.0 187.0 584.755724
209.0 188.0 584.755724
209.0 189.0 584.755724
209.0 190.0 584.755724
209.0 191.0 584.755724
209.0 192.0 584.755724
209.0 193.0 584.755724
209.0 194.0 584.755724
209.0 195.0 584.755724
209.0 196.0 584.755724
209.0 197.0 584.755724
209.0 198.0 584.755724
209.0 199.0 584.755724
209.0 200.0 584.755724
209.0 201.0 584.755724
209.0 202.0 584.755724
209.0 203.0 584.755724
209.0 204.0 584.755724
209.0 205.0 584.755724
209.0 206.0 584.755724
209.0 207.0 584.755724
209.0 208.0 584.755724
209.0 209.0 584.755724
209.0 210.0 584.755724
209.0 211.0 584.755724
209.0 212.0 584.755724
209.0 213.0 582.857166
209.0 214.0 582.857166
209.0 215.0 582.857166
209.0 216.0 582.857166
209.0 217.0 582.857166
209.0 218.0 582.857166
209.0 219.0 582.857166
209.0 220.0 582.857166
209.0 221.0 580.970897
209.0 222.0 580.970897
209.0 223.0 580.970897
209.0 224.0 580.970897
209.0 225.0 580.970897
209.0 226.0 580.970897
209.0 227.0 580.970897
209.0 228.0 579.096797
209.0 229.0 579.096797
209.0 230.0 579.096797
209.0 231.0 579.096797
209.0 232.0 579.096797
209.0 233.0 438.924223
209.0 234.0 438.924223
209.0 235.0 440.000017
209.0 236.0 440.000017
209.0 237.0 441.081099
209.0 238.0 441.081099
209.0 239.0 442.167505
209.0 240.0 443.259277
209.0 241.0 444.356453
209.0 242.0 445.459075
209.0 243.0 446.567182
209.0 244.0 448.800018
209.0 245.0 451.055294
209.0 246.0 452.191454
209.0 247.0 456.793911
209.0 248.0 457.959202
209.0 249.0 460.307711
209.0 251.0 465.077739
209.0 254.0 481.286882
209.0 255.0 482.580664
209.0 256.0 483.881421
209.0 257.0 486.504084
209.0 258.0 489.155333
209.0 259.0 491.835636
209.0 260.0 493.186833
209.0 261.0 494.545474
209.0 262.0 495.911622
209.0 263.0 497.285338
209.0 264.0 498.666686
209.0 265.0 501.452534
209.0 266.0 502.857163
209.0 267.0 504.269683
209.0 268.0 505.690161
209.0 269.0 507.118664
209.0 270.0 508.555261
209.0 271.0 510.00002
209.0 272.0 511.453012
209.0 273.0 512.914306
209.0 274.0 514.383975
209.0 275.0 515.862089
209.0 276.0 517.348724
209.0 277.0 518.843951
209.0 278.0 520.347847
209.0 279.0 521.860486
209.0 280.0 523.381945
209.0 282.0 582.857166
209.0 283.0 582.857166
209.0 284.0 584.755724
209.0 285.0 586.66669
209.0 286.0 588.590187
209.0 287.0 625.505251
209.0 288.0 625.505251
209.0 289.0 625.505251
209.0 290.0 625.505251
209.0 291.0 623.333358
209.0 292.0 623.333358
209.0 293.0 623.333358
209.0 294.0 623.333358
209.0 295.0 623.333358
209.0 296.0 623.333358
209.0 297.0 623.333358
209.0 298.0 623.333358
209.0 299.0 621.176495
209.0 300.0 621.176495
209.0 301.0 621.176495
209.0 302.0 623.333358
209.0 303.0 623.333358
209.0 315.0 695.813981
209.0 316.0 695.813981
209.0 317.0 695.813981
209.0 318.0 695.813981
209.0 319.0 695.813981
209.0 320.0 695.813981
209.0 321.0 695.813981
209.0 322.0 695.813981
209.0 323.0 695.813981
209.0 324.0 698.521429
209.0 325.0 698.521429
209.0 326.0 698.521429
209.0 327.0 586.66669
209.0 328.0 586.66669
209.0 329.0 584.755724
209.0 330.0 582.857166
209.0 331.0 582.857166
209.0 332.0 582.857166
209.0 333.0 580.970897
209.0 334.0 580.970897
209.0 335.0 580.970897
209.0 336.0 580.970897
209.0 337.0 580.970897
209.0 338.0 580.970897
209.0 339.0 580.970897
209.0 340.0 580.970897
209.0 341.0 580.970897
209.0 342.0 580.970897
209.0 343.0 580.970897
209.0 344.0 582.857166
209.0 345.0 582.857166
209.0 346.0 582.857166
209.0 347.0 701.250028
209.0 348.0 701.250028
209.0 349.0 704.000028
209.0 350.0 704.000028
209.0 351.0 704.000028
209.0 352.0 704.000028
209.0 353.0 704.000028
209.0 354.0 704.000028
209.0 355.0 704.000028
209.0 356.0 704.000028
209.0 357.0 704.000028
209.0 358.0 704.000028
209.0 359.0 704.000028
209.0 360.0 704.000028
209.0 361.0 704.000028
209.0 362.0 704.000028
209.0 363.0 704.000028
209.0 364.0 704.000028
209.0 365.0 704.000028
209.0 366.0 704.000028
209.0 367.0 704.000028
209.0 368.0 704.000028
209.0 369.0 704.000028
209.0 370.0 704.000028
209.0 371.0 704.000028
209.0 372.0 706.771682
209.0 373.0 706.771682
209.0 374.0 706.771682
209.0 375.0 706.771682
209.0 376.0 706.771682
209.0 377.0 706.771682
209.0 378.0 706.771682
209.0 379.0 706.771682
209.0 380.0 706.771682
209.0 381.0 706.771682
209.0 382.0 706.771682
209.0 383.0 706.771682
209.0 384.0 706.771682
209.0 385.0 706.771682
209.0 386.0 706.771682
209.0 387.0 709.565246
209.0 388.0 709.565246
209.0 389.0 709.565246
209.0 390.0 709.565246
209.0 391.0 709.565246
209.0 392.0 709.565246
209.0 393.0 709.565246
209.0 394.0 709.565246
209.0 395.0 709.565246
209.0 396.0 709.565246
209.0 397.0 709.565246
209.0 398.0 709.565246
209.0 399.0 709.565246
209.0 400.0 709.565246
209.0 401.0 709.565246
209.0 402.0 709.565246
209.0 403.0 709.565246
209.0 404.0 709.565246
209.0 405.0 709.565246
209.0 406.0 709.565246
209.0 407.0 709.565246
209.0 408.0 709.565246
209.0 409.0 709.565246
209.0 410.0 709.565246
209.0 411.0 709.565246
209.0 412.0 709.565246
209.0 413.0 709.565246
209.0 414.0 709.565246
209.0 415.0 709.565246
209.0 416.0 709.565246
209.0 417.0 709.565246
209.0 418.0 709.565246
209.0 419.0 709.565246
209.0 420.0 709.565246
209.0 421.0 709.565246
209.0 422.0 709.565246
209.0 423.0 709.565246
209.0 424.0 709.565246
209.0 425.0 709.565246
209.0 426.0 709.565246
210.0 152.0 667.360621
210.0 153.0 584.755724
210.0 154.0 582.857166
210.0 155.0 582.857166
210.0 156.0 582.857166
210.0 157.0 582.857166
210.0 158.0 582.857166
210.0 159.0 582.857166
210.0 160.0 582.857166
210.0 161.0 582.857166
210.0 162.0 582.857166
210.0 163.0 582.857166
210.0 164.0 582.857166
210.0 165.0 582.857166
210.0 166.0 582.857166
210.0 167.0 582.857166
210.0 168.0 582.857166
210.0 169.0 582.857166
210.0 170.0 582.857166
210.0 171.0 582.857166
210.0 172.0 582.857166
210.0 173.0 582.857166
210.0 174.0 582.857166
210.0 175.0 582.857166
210.0 176.0 582.857166
210.0 177.0 582.857166
210.0 178.0 582.857166
210.0 179.0 582.857166
210.0 180.0 582.857166
210.0 181.0 582.857166
210.0 182.0 582.857166
210.0 183.0 582.857166
210.0 184.0 582.857166
210.0 185.0 582.857166
210.0 186.0 582.857166
210.0 187.0 582.857166
210.0 188.0 582.857166
210.0 189.0 582.857166
210.0 190.0 582.857166
210.0 191.0 582.857166
210.0 192.0 582.857166
210.0 193.0 582.857166
210.0 194.0 582.857166
210.0 195.0 582.857166
210.0 196.0 582.857166
210.0 197.0 582.857166
210.0 198.0 582.857166
210.0 199.0 582.857166
210.0 200.0 582.857166
210.0 201.0 582.857166
210.0 202.0 582.857166
210.0 203.0 582.857166
210.0 204.0 582.857166
210.0 205.0 582.857166
210.0 206.0 582.857166
210.0 207.0 582.857166
210.0 208.0 582.857166
210.0 209.0 582.857166
210.0 210.0 582.857166
210.0 211.0 582.857166
210.0 212.0 582.857166
210.0 213.0 582.857166
210.0 214.0 582.857166
210.0 215.0 580.970897
210.0 216.0 580.970897
210.0 217.0 580.970897
210.0 218.0 580.970897
210.0 219.0 580.970897
210.0 220.0 580.970897
210.0 221.0 580.970897
210.0 222.0 580.970897
210.0 223.0 580.970897
210.0 224.0 580.970897
210.0 225.0 580.970897
210.0 226.0 579.096797
210.0 227.0 579.096797
210.0 228.0 579.096797
210.0 229.0 579.096797
210.0 230.0 579.096797
210.0 231.0 579.096797
210.0 232.0 438.924223
210.0 233.0 438.924223
210.0 234.0 438.924223
210.0 235.0 438.924223
210.0 236.0 440.000017
210.0 237.0 441.081099
210.0 238.0 441.081099
210.0 239.0 442.167505
210.0 240.0 443.259277
210.0 241.0 444.356453
210.0 242.0 446.567182
210.0 243.0 448.800018
210.0 244.0 451.055294
210.0 245.0 483.881421
210.0 254.0 482.580664
210.0 255.0 483.881421
210.0 256.0 486.504084
210.0 257.0 489.155333
210.0 258.0 491.835636
210.0 259.0 493.186833
210.0 260.0 494.545474
210.0 261.0 495.911622
210.0 262.0 497.285338
210.0 263.0 500.05573
210.0 264.0 501.452534
210.0 265.0 502.857163
210.0 266.0 504.269683
210.0 267.0 505.690161
210.0 268.0 507.118664
210.0 269.0 508.555261
210.0 270.0 510.00002
210.0 271.0 511.453012
210.0 272.0 512.914306
210.0 273.0 514.383975
210.0 274.0 515.862089
210.0 275.0 517.348724
210.0 276.0 518.843951
210.0 277.0 520.347847
210.0 278.0 521.860486
210.0 279.0 521.860486
210.0 280.0 524.912302
210.0 281.0 580.970897
210.0 282.0 582.857166
210.0 283.0 582.857166
210.0 284.0 584.755724
210.0 285.0 586.66669
210.0 286.0 625.505251
210.0 287.0 625.505251
210.0 288.0 625.505251
210.0 289.0 625.505251
210.0 290.0 623.333358
210.0 291.0 623.333358
210.0 292.0 623.333358
210.0 293.0 623.333358
210.0 294.0 623.333358
210.0 295.0 623.333358
210.0 296.0 621.176495
210.0 297.0 621.176495
210.0 298.0 621.176495
210.0 299.0 621.176495
210.0 300.0 621.176495
210.0 301.0 621.176495
210.0 302.0 621.176495
210.0 303.0 621.176495
210.0 314.0 695.813981
210.0 315.0 695.813981
210.0 316.0 695.813981
210.0 317.0 695.813981
210.0 318.0 695.813981
210.0 319.0 695.813981
210.0 320.0 695.813981
210.0 321.0 695.813981
210.0 322.0 695.813981
210.0 323.0 695.813981
210.0 324.0 695.813981
210.0 325.0 698.521429
210.0 326.0 586.66669
210.0 327.0 586.66669
210.0 328.0 584.755724
210.0 329.0 582.857166
210.0 330.0 582.857166
210.0 331.0 582.857166
210.0 332.0 580.970897
210.0 333.0 580.970897
210.0 334.0 580.970897
210.0 335.0 580.970897
210.0 336.0 580.970897
210.0 337.0 580.970897
210.0 338.0 580.970897
210.0 339.0 580.970897
210.0 340.0 580.970897
210.0 341.0 580.970897
210.0 342.0 580.970897
210.0 343.0 582.857166
210.0 344.0 582.857166
210.0 345.0 582.857166
210.0 346.0 701.250028
210.0 347.0 701.250028
210.0 348.0 701.250028
210.0 349.0 704.000028
210.0 350.0 704.000028
210.0 351.0 704.000028
210.0 352.0 704.000028
210.0 353.0 704.000028
210.0 354.0 704.000028
210.0 355.0 704.000028
210.0 356.0 704.000028
210.0 357.0 704.000028
210.0 358.0 704.000028
210.0 359.0 704.000028
210.0 360.0 704.000028
210.0 361.0 704.000028
210.0 362.0 704.000028
210.0 363.0 704.000028
210.0 364.0 704.000028
210.0 365.0 704.000028
210.0 366.0 704.000028
210.0 367.0 704.000028
210.0 368.0 704.000028
210.0 369.0 704.000028
210.0 370.0 706.771682
210.0 371.0 706.771682
210.0 372.0 704.000028
210.0 373.0 704.000028
210.0 374.0 704.000028
210.0 375.0 706.771682
210.0 376.0 706.771682
210.0 377.0 706.771682
210.0 378.0 706.771682
210.0 379.0 706.771682
210.0 380.0 706.771682
210.0 381.0 706.771682
210.0 382.0 706.771682
210.0 383.0 706.771682
210.0 384.0 706.771682
210.0 385.0 706.771682
210.0 386.0 706.771682
210.0 387.0 709.565246
210.0 388.0 709.565246
210.0 389.0 706.771682
210.0 390.0 706.771682
210.0 391.0 709.565246
210.0 392.0 709.565246
210.0 393.0 709.565246
210.0 394.0 709.565246
210.0 395.0 709.565246
210.0 396.0 709.565246
210.0 397.0 709.565246
210.0 398.0 709.565246
210.0 399.0 709.565246
210.0 400.0 709.565246
210.0 401.0 709.565246
210.0 402.0 709.565246
210.0 403.0 709.565246
210.0 404.0 709.565246
210.0 405.0 709.565246
210.0 406.0 709.565246
210.0 407.0 709.565246
210.0 408.0 709.565246
210.0 409.0 709.565246
210.0 410.0 709.565246
210.0 411.0 709.565246
210.0 412.0 709.565246
210.0 413.0 709.565246
210.0 414.0 709.565246
210.0 415.0 709.565246
210.0 416.0 709.565246
210.0 417.0 709.565246
210.0 418.0 709.565246
210.0 419.0 709.565246
210.0 420.0 709.565246
210.0 421.0 709.565246
210.0 422.0 709.565246
210.0 423.0 709.565246
210.0 424.0 709.565246
210.0 425.0 709.565246
210.0 426.0 709.565246
211.0 152.0 667.360621
211.0 153.0 667.360621
211.0 154.0 667.360621
211.0 155.0 667.360621
211.0 156.0 667.360621
211.0 157.0 584.755724
211.0 158.0 582.857166
211.0 159.0 582.857166
211.0 160.0 582.857166
211.0 161.0 582.857166
211.0 162.0 582.857166
211.0 163.0 582.857166
211.0 164.0 582.857166
211.0 165.0 582.857166
211.0 166.0 582.857166
211.0 167.0 582.857166
211.0 168.0 580.970897
211.0 169.0 580.970897
211.0 170.0 580.970897
211.0 171.0 580.970897
211.0 172.0 582.857166
211.0 173.0 582.857166
211.0 174.0 582.857166
211.0 175.0 582.857166
211.0 176.0 582.857166
211.0 177.0 582.857166
211.0 178.0 582.857166
211.0 179.0 582.857166
211.0 180.0 582.857166
211.0 181.0 582.857166
211.0 182.0 582.857166
211.0 183.0 582.857166
211.0 184.0 582.857166
211.0 185.0 582.857166
211.0 186.0 582.857166
211.0 187.0 582.857166
211.0 188.0 582.857166
211.0 189.0 582.857166
211.0 190.0 582.857166
211.0 191.0 582.857166
211.0 192.0 582.857166
211.0 193.0 582.857166
211.0 194.0 582.857166
211.0 195.0 582.857166
211.0 196.0 582.857166
211.0 197.0 582.857166
211.0 198.0 582.857166
211.0 199.0 582.857166
211.0 200.0 582.857166
211.0 201.0 582.857166
211.0 202.0 582.857166
211.0 203.0 582.857166
211.0 204.0 582.857166
211.0 205.0 582.857166
211.0 206.0 582.857166
211.0 207.0 582.857166
211.0 208.0 582.857166
211.0 209.0 580.970897
211.0 210.0 580.970897
211.0 211.0 580.970897
211.0 212.0 580.970897
211.0 213.0 580.970897
211.0 214.0 580.970897
211.0 215.0 580.970897
211.0 216.0 580.970897
211.0 217.0 580.970897
211.0 218.0 580.970897
211.0 219.0 580.970897
211.0 220.0 580.970897
211.0 221.0 579.096797
211.0 222.0 580.970897
211.0 223.0 580.970897
211.0 224.0 579.096797
211.0 225.0 579.096797
211.0 226.0 579.096797
211.0 227.0 579.096797
211.0 228.0 579.096797
211.0 229.0 579.096797
211.0 230.0 579.096797
211.0 231.0 437.853676
211.0 232.0 437.853676
211.0 233.0 437.853676
211.0 234.0 438.924223
211.0 235.0 438.924223
211.0 236.0 440.000017
211.0 237.0 441.081099
211.0 238.0 442.167505
211.0 239.0 442.167505
211.0 240.0 444.356453
211.0 241.0 446.567182
211.0 242.0 494.545474
211.0 243.0 490.491823
211.0 244.0 487.826106
211.0 245.0 485.189208
211.0 246.0 486.504084
211.0 252.0 485.189208
211.0 253.0 483.881421
211.0 254.0 485.189208
211.0 255.0 487.826106
211.0 256.0 489.155333
211.0 257.0 493.186833
211.0 258.0 493.186833
211.0 259.0 494.545474
211.0 260.0 497.285338
211.0 261.0 497.285338
211.0 262.0 498.666686
211.0 263.0 501.452534
211.0 264.0 502.857163
211.0 265.0 504.269683
211.0 266.0 505.690161
211.0 267.0 507.118664
211.0 268.0 508.555261
211.0 269.0 510.00002
211.0 270.0 511.453012
211.0 271.0 511.453012
211.0 272.0 512.914306
211.0 273.0 514.383975
211.0 274.0 515.862089
211.0 275.0 517.348724
211.0 276.0 518.843951
211.0 277.0 520.347847
211.0 278.0 521.860486
211.0 279.0 523.381945
211.0 280.0 524.912302
211.0 281.0 528.000021
211.0 282.0 529.557543
211.0 283.0 584.755724
211.0 284.0 584.755724
211.0 285.0 586.66669
211.0 286.0 625.505251
211.0 287.0 625.505251
211.0 288.0 623.333358
211.0 289.0 623.333358
211.0 290.0 623.333358
211.0 291.0 623.333358
211.0 292.0 623.333358
211.0 293.0 623.333358
211.0 294.0 623.333358
211.0 295.0 621.176495
211.0 296.0 621.176495
211.0 297.0 621.176495
211.0 298.0 621.176495
211.0 299.0 621.176495
211.0 300.0 621.176495
211.0 301.0 621.176495
211.0 302.0 621.176495
211.0 303.0 621.176495
211.0 313.0 695.813981
211.0 314.0 693.127441
211.0 315.0 693.127441
211.0 316.0 695.813981
211.0 317.0 695.813981
211.0 318.0 695.813981
211.0 319.0 695.813981
211.0 320.0 695.813981
211.0 321.0 695.813981
211.0 322.0 695.813981
211.0 323.0 695.813981
211.0 324.0 590.526339
211.0 325.0 586.66669
211.0 326.0 584.755724
211.0 327.0 584.755724
211.0 328.0 582.857166
211.0 329.0 582.857166
211.0 330.0 582.857166
211.0 331.0 580.970897
211.0 332.0 580.970897
211.0 333.0 580.970897
211.0 334.0 580.970897
211.0 335.0 580.970897
211.0 336.0 580.970897
211.0 337.0 580.970897
211.0 338.0 580.970897
211.0 339.0 580.970897
211.0 340.0 580.970897
211.0 341.0 580.970897
211.0 342.0 582.857166
211.0 343.0 582.857166
211.0 344.0 582.857166
211.0 345.0 701.250028
211.0 346.0 701.250028
211.0 347.0 701.250028
211.0 348.0 701.250028
211.0 349.0 704.000028
211.0 350.0 704.000028
211.0 351.0 704.000028
211.0 352.0 704.000028
211.0 353.0 704.000028
211.0 354.0 704.000028
211.0 355.0 704.000028
211.0 356.0 704.000028
211.0 357.0 704.000028
211.0 358.0 704.000028
211.0 359.0 704.000028
211.0 360.0 704.000028
211.0 361.0 704.000028
211.0 362.0 704.000028
211.0 363.0 704.000028
211.0 364.0 704.000028
211.0 365.0 704.000028
211.0 366.0 704.000028
211.0 367.0 704.000028
211.0 368.0 704.000028
211.0 369.0 704.000028
211.0 370.0 704.000028
211.0 371.0 704.000028
211.0 372.0 704.000028
211.0 373.0 704.000028
211.0 374.0 704.000028
211.0 375.0 706.771682
211.0 376.0 706.771682
211.0 377.0 706.771682
211.0 378.0 706.771682
211.0 379.0 706.771682
211.0 380.0 706.771682
211.0 381.0 706.771682
211.0 382.0 706.771682
211.0 383.0 706.771682
211.0 384.0 706.771682
211.0 385.0 706.771682
211.0 386.0 706.771682
211.0 387.0 706.771682
211.0 388.0 706.771682
211.0 389.0 706.771682
211.0 390.0 706.771682
211.0 391.0 706.771682
211.0 392.0 709.565246
211.0 393.0 709.565246
211.0 394.0 709.565246
211.0 395.0 709.565246
211.0 396.0 709.565246
211.0 397.0 709.565246
211.0 398.0 709.565246
211.0 399.0 706.771682
211.0 400.0 706.771682
211.0 401.0 706.771682
211.0 402.0 709.565246
211.0 403.0 709.565246
211.0 404.0 709.565246
211.0 405.0 706.771682
211.0 406.0 706.771682
211.0 407.0 709.565246
211.0 408.0 709.565246
211.0 409.0 709.565246
211.0 410.0 706.771682
211.0 411.0 706.771682
211.0 412.0 706.771682
211.0 413.0 706.771682
211.0 414.0 706.771682
211.0 415.0 709.565246
211.0 416.0 709.565246
211.0 417.0 709.565246
211.0 418.0 709.565246
211.0 419.0 709.565246
211.0 420.0 709.565246
211.0 421.0 709.565246
211.0 422.0 709.565246
211.0 423.0 709.565246
211.0 424.0 709.565246
211.0 425.0 709.565246
211.0 426.0 709.565246
212.0 152.0 667.360621
212.0 153.0 667.360621
212.0 154.0 667.360621
212.0 155.0 667.360621
212.0 156.0 667.360621
212.0 157.0 667.360621
212.0 158.0 667.360621
212.0 159.0 667.360621
212.0 160.0 584.755724
212.0 161.0 582.857166
212.0 162.0 582.857166
212.0 163.0 582.857166
212.0 164.0 582.857166
212.0 165.0 582.857166
212.0 166.0 582.857166
212.0 167.0 582.857166
212.0 168.0 582.857166
212.0 169.0 580.970897
212.0 170.0 580.970897
212.0 171.0 580.970897
212.0 172.0 580.970897
212.0 173.0 582.857166
212.0 174.0 582.857166
212.0 175.0 582.857166
212.0 176.0 582.857166
212.0 177.0 582.857166
212.0 178.0 580.970897
212.0 179.0 580.970897
212.0 180.0 580.970897
212.0 181.0 580.970897
212.0 182.0 580.970897
212.0 183.0 580.970897
212.0 184.0 580.970897
212.0 185.0 582.857166
212.0 186.0 582.857166
212.0 187.0 582.857166
212.0 188.0 582.857166
212.0 189.0 582.857166
212.0 190.0 582.857166
212.0 191.0 582.857166
212.0 192.0 580.970897
212.0 193.0 580.970897
212.0 194.0 582.857166
212.0 195.0 580.970897
